-119.000000 -119.000000 595.000000 
-133.000000 -119.000000 609.000000 
-119.000000 -175.000000 637.000000 
-119.000000 -189.000000 651.000000 
-119.000000 -175.000000 651.000000 
-189.000000 -147.000000 637.000000 
-203.000000 -133.000000 637.000000 
-203.000000 -119.000000 637.000000 
-203.000000 -147.000000 651.000000 
-203.000000 -147.000000 665.000000 
-189.000000 -133.000000 623.000000 
-175.000000 -133.000000 623.000000 
-189.000000 -119.000000 623.000000 
-189.000000 -133.000000 637.000000 
-175.000000 -119.000000 623.000000 
-189.000000 -119.000000 637.000000 
-175.000000 -119.000000 637.000000 
-217.000000 -133.000000 651.000000 
-203.000000 -133.000000 651.000000 
-217.000000 -119.000000 651.000000 
-217.000000 -133.000000 665.000000 
-203.000000 -119.000000 651.000000 
-203.000000 -133.000000 665.000000 
-217.000000 -119.000000 665.000000 
-203.000000 -119.000000 665.000000 
-189.000000 -133.000000 651.000000 
-189.000000 -119.000000 651.000000 
-189.000000 -119.000000 665.000000 
-119.000000 -119.000000 665.000000 
-63.000000 -77.000000 455.000000 
-63.000000 -63.000000 455.000000 
-63.000000 -77.000000 469.000000 
-77.000000 -63.000000 469.000000 
-63.000000 -63.000000 469.000000 
-91.000000 -63.000000 483.000000 
-91.000000 -63.000000 497.000000 
-77.000000 -77.000000 483.000000 
-63.000000 -77.000000 483.000000 
-77.000000 -63.000000 483.000000 
-77.000000 -77.000000 497.000000 
-63.000000 -63.000000 483.000000 
-63.000000 -77.000000 497.000000 
-77.000000 -63.000000 497.000000 
-63.000000 -63.000000 497.000000 
-49.000000 -91.000000 455.000000 
-35.000000 -91.000000 455.000000 
-49.000000 -91.000000 469.000000 
-35.000000 -91.000000 469.000000 
-21.000000 -91.000000 455.000000 
-7.000000 -91.000000 455.000000 
-21.000000 -91.000000 469.000000 
-7.000000 -91.000000 469.000000 
-49.000000 -77.000000 455.000000 
-35.000000 -77.000000 455.000000 
-49.000000 -63.000000 455.000000 
-49.000000 -77.000000 469.000000 
-35.000000 -63.000000 455.000000 
-35.000000 -77.000000 469.000000 
-49.000000 -63.000000 469.000000 
-35.000000 -63.000000 469.000000 
-49.000000 -91.000000 483.000000 
-35.000000 -91.000000 483.000000 
-49.000000 -91.000000 497.000000 
-35.000000 -91.000000 497.000000 
-21.000000 -77.000000 455.000000 
-7.000000 -77.000000 455.000000 
-21.000000 -63.000000 455.000000 
-21.000000 -77.000000 469.000000 
-7.000000 -63.000000 455.000000 
-7.000000 -77.000000 469.000000 
-21.000000 -63.000000 469.000000 
-7.000000 -63.000000 469.000000 
-21.000000 -91.000000 483.000000 
-7.000000 -91.000000 483.000000 
-21.000000 -91.000000 497.000000 
-7.000000 -91.000000 497.000000 
-49.000000 -77.000000 483.000000 
-49.000000 -63.000000 483.000000 
-49.000000 -77.000000 497.000000 
-35.000000 -77.000000 497.000000 
-49.000000 -63.000000 497.000000 
-35.000000 -63.000000 497.000000 
-21.000000 -77.000000 483.000000 
-7.000000 -77.000000 483.000000 
-21.000000 -63.000000 483.000000 
-7.000000 -63.000000 483.000000 
-7.000000 -77.000000 497.000000 
-21.000000 -63.000000 497.000000 
-7.000000 -63.000000 497.000000 
-91.000000 -35.000000 469.000000 
-77.000000 -49.000000 455.000000 
-63.000000 -49.000000 455.000000 
-77.000000 -35.000000 455.000000 
-77.000000 -49.000000 469.000000 
-63.000000 -35.000000 455.000000 
-63.000000 -49.000000 469.000000 
-77.000000 -35.000000 469.000000 
-63.000000 -35.000000 469.000000 
-91.000000 -21.000000 469.000000 
-91.000000 -49.000000 483.000000 
-105.000000 -35.000000 483.000000 
-105.000000 -49.000000 497.000000 
-91.000000 -35.000000 483.000000 
-91.000000 -49.000000 497.000000 
-105.000000 -35.000000 497.000000 
-91.000000 -35.000000 497.000000 
-77.000000 -21.000000 455.000000 
-63.000000 -21.000000 455.000000 
-77.000000 -7.000000 455.000000 
-77.000000 -21.000000 469.000000 
-63.000000 -7.000000 455.000000 
-63.000000 -21.000000 469.000000 
-77.000000 -7.000000 469.000000 
-63.000000 -7.000000 469.000000 
-77.000000 -49.000000 483.000000 
-63.000000 -49.000000 483.000000 
-77.000000 -35.000000 483.000000 
-77.000000 -49.000000 497.000000 
-63.000000 -35.000000 483.000000 
-63.000000 -49.000000 497.000000 
-77.000000 -35.000000 497.000000 
-63.000000 -35.000000 497.000000 
-91.000000 -21.000000 483.000000 
-105.000000 -21.000000 497.000000 
-91.000000 -7.000000 483.000000 
-91.000000 -21.000000 497.000000 
-91.000000 -7.000000 497.000000 
-77.000000 -21.000000 483.000000 
-63.000000 -21.000000 483.000000 
-77.000000 -7.000000 483.000000 
-77.000000 -21.000000 497.000000 
-63.000000 -7.000000 483.000000 
-63.000000 -21.000000 497.000000 
-77.000000 -7.000000 497.000000 
-105.000000 -105.000000 525.000000 
-91.000000 -91.000000 511.000000 
-91.000000 -105.000000 525.000000 
-105.000000 -91.000000 525.000000 
-91.000000 -91.000000 525.000000 
-77.000000 -91.000000 511.000000 
-77.000000 -105.000000 525.000000 
-63.000000 -91.000000 511.000000 
-63.000000 -105.000000 525.000000 
-77.000000 -91.000000 525.000000 
-63.000000 -91.000000 525.000000 
-91.000000 -77.000000 511.000000 
-105.000000 -63.000000 511.000000 
-105.000000 -77.000000 525.000000 
-91.000000 -63.000000 511.000000 
-91.000000 -77.000000 525.000000 
-105.000000 -63.000000 525.000000 
-91.000000 -63.000000 525.000000 
-105.000000 -105.000000 539.000000 
-91.000000 -105.000000 539.000000 
-105.000000 -91.000000 539.000000 
-105.000000 -105.000000 553.000000 
-91.000000 -91.000000 539.000000 
-91.000000 -105.000000 553.000000 
-105.000000 -91.000000 553.000000 
-91.000000 -91.000000 553.000000 
-77.000000 -77.000000 511.000000 
-63.000000 -77.000000 511.000000 
-77.000000 -63.000000 511.000000 
-77.000000 -77.000000 525.000000 
-63.000000 -63.000000 511.000000 
-63.000000 -77.000000 525.000000 
-77.000000 -63.000000 525.000000 
-63.000000 -63.000000 525.000000 
-77.000000 -105.000000 539.000000 
-77.000000 -91.000000 539.000000 
-63.000000 -105.000000 553.000000 
-63.000000 -91.000000 553.000000 
-105.000000 -77.000000 539.000000 
-91.000000 -77.000000 539.000000 
-105.000000 -63.000000 539.000000 
-105.000000 -77.000000 553.000000 
-91.000000 -63.000000 539.000000 
-91.000000 -77.000000 553.000000 
-105.000000 -63.000000 553.000000 
-91.000000 -63.000000 553.000000 
-77.000000 -77.000000 539.000000 
-77.000000 -63.000000 539.000000 
-63.000000 -77.000000 553.000000 
-49.000000 -49.000000 455.000000 
-35.000000 -49.000000 455.000000 
-49.000000 -35.000000 455.000000 
-49.000000 -49.000000 469.000000 
-35.000000 -35.000000 455.000000 
-35.000000 -49.000000 469.000000 
-49.000000 -35.000000 469.000000 
-35.000000 -35.000000 469.000000 
-21.000000 -49.000000 455.000000 
-7.000000 -49.000000 455.000000 
-21.000000 -35.000000 455.000000 
-21.000000 -49.000000 469.000000 
-7.000000 -35.000000 455.000000 
-7.000000 -49.000000 469.000000 
-21.000000 -35.000000 469.000000 
-7.000000 -35.000000 469.000000 
-49.000000 -21.000000 455.000000 
-35.000000 -21.000000 455.000000 
-49.000000 -7.000000 455.000000 
-49.000000 -21.000000 469.000000 
-35.000000 -7.000000 455.000000 
-35.000000 -21.000000 469.000000 
-49.000000 -7.000000 469.000000 
-35.000000 -7.000000 469.000000 
-49.000000 -49.000000 483.000000 
-49.000000 -35.000000 483.000000 
-49.000000 -49.000000 497.000000 
-35.000000 -49.000000 497.000000 
-35.000000 -35.000000 497.000000 
-21.000000 -21.000000 455.000000 
-7.000000 -21.000000 455.000000 
-21.000000 -7.000000 455.000000 
-21.000000 -21.000000 469.000000 
-7.000000 -7.000000 455.000000 
-7.000000 -21.000000 469.000000 
-21.000000 -7.000000 469.000000 
-7.000000 -7.000000 469.000000 
-21.000000 -49.000000 483.000000 
-7.000000 -49.000000 483.000000 
-21.000000 -35.000000 483.000000 
-21.000000 -49.000000 497.000000 
-7.000000 -35.000000 483.000000 
-7.000000 -49.000000 497.000000 
-21.000000 -35.000000 497.000000 
-7.000000 -35.000000 497.000000 
-49.000000 -7.000000 483.000000 
-49.000000 -21.000000 497.000000 
-35.000000 -21.000000 497.000000 
-49.000000 -7.000000 497.000000 
-35.000000 -7.000000 497.000000 
-21.000000 -21.000000 483.000000 
-7.000000 -21.000000 483.000000 
-21.000000 -7.000000 483.000000 
-21.000000 -21.000000 497.000000 
-7.000000 -7.000000 483.000000 
-7.000000 -21.000000 497.000000 
-21.000000 -7.000000 497.000000 
-7.000000 -7.000000 497.000000 
-49.000000 -91.000000 511.000000 
-49.000000 -105.000000 525.000000 
-35.000000 -91.000000 511.000000 
-35.000000 -105.000000 525.000000 
-49.000000 -91.000000 525.000000 
-7.000000 -91.000000 511.000000 
-7.000000 -105.000000 525.000000 
-21.000000 -91.000000 525.000000 
-7.000000 -91.000000 525.000000 
-49.000000 -77.000000 511.000000 
-35.000000 -77.000000 511.000000 
-49.000000 -63.000000 511.000000 
-49.000000 -77.000000 525.000000 
-35.000000 -63.000000 525.000000 
-49.000000 -105.000000 539.000000 
-49.000000 -91.000000 539.000000 
-49.000000 -105.000000 553.000000 
-35.000000 -91.000000 553.000000 
-21.000000 -77.000000 511.000000 
-7.000000 -77.000000 511.000000 
-21.000000 -63.000000 511.000000 
-21.000000 -77.000000 525.000000 
-7.000000 -63.000000 511.000000 
-7.000000 -77.000000 525.000000 
-21.000000 -63.000000 525.000000 
-7.000000 -63.000000 525.000000 
-7.000000 -105.000000 539.000000 
-21.000000 -91.000000 539.000000 
-21.000000 -105.000000 553.000000 
-7.000000 -91.000000 539.000000 
-7.000000 -105.000000 553.000000 
-21.000000 -91.000000 553.000000 
-7.000000 -91.000000 553.000000 
-35.000000 -77.000000 539.000000 
-35.000000 -63.000000 539.000000 
-35.000000 -77.000000 553.000000 
-49.000000 -63.000000 553.000000 
-35.000000 -63.000000 553.000000 
-21.000000 -77.000000 539.000000 
-7.000000 -77.000000 539.000000 
-21.000000 -63.000000 539.000000 
-21.000000 -77.000000 553.000000 
-7.000000 -63.000000 539.000000 
-7.000000 -77.000000 553.000000 
-21.000000 -63.000000 553.000000 
-7.000000 -63.000000 553.000000 
-105.000000 -49.000000 511.000000 
-91.000000 -49.000000 511.000000 
-105.000000 -35.000000 511.000000 
-105.000000 -49.000000 525.000000 
-91.000000 -35.000000 511.000000 
-91.000000 -49.000000 525.000000 
-105.000000 -35.000000 525.000000 
-91.000000 -35.000000 525.000000 
-77.000000 -49.000000 511.000000 
-63.000000 -49.000000 511.000000 
-77.000000 -35.000000 511.000000 
-77.000000 -49.000000 525.000000 
-63.000000 -35.000000 511.000000 
-63.000000 -49.000000 525.000000 
-77.000000 -35.000000 525.000000 
-105.000000 -21.000000 511.000000 
-91.000000 -21.000000 511.000000 
-105.000000 -21.000000 525.000000 
-91.000000 -21.000000 525.000000 
-91.000000 -7.000000 525.000000 
-105.000000 -49.000000 539.000000 
-91.000000 -49.000000 539.000000 
-105.000000 -35.000000 539.000000 
-105.000000 -49.000000 553.000000 
-91.000000 -35.000000 539.000000 
-91.000000 -49.000000 553.000000 
-105.000000 -35.000000 553.000000 
-91.000000 -35.000000 553.000000 
-77.000000 -21.000000 511.000000 
-77.000000 -7.000000 511.000000 
-77.000000 -21.000000 525.000000 
-63.000000 -7.000000 511.000000 
-63.000000 -7.000000 525.000000 
-77.000000 -49.000000 539.000000 
-77.000000 -35.000000 539.000000 
-63.000000 -49.000000 553.000000 
-63.000000 -35.000000 553.000000 
-105.000000 -21.000000 539.000000 
-91.000000 -21.000000 539.000000 
-105.000000 -7.000000 539.000000 
-105.000000 -21.000000 553.000000 
-105.000000 -7.000000 553.000000 
-77.000000 -7.000000 539.000000 
-63.000000 -21.000000 553.000000 
-63.000000 -7.000000 553.000000 
-49.000000 -49.000000 511.000000 
-35.000000 -49.000000 511.000000 
-49.000000 -35.000000 511.000000 
-35.000000 -35.000000 511.000000 
-35.000000 -49.000000 525.000000 
-49.000000 -35.000000 525.000000 
-35.000000 -35.000000 525.000000 
-21.000000 -49.000000 511.000000 
-7.000000 -49.000000 511.000000 
-21.000000 -35.000000 511.000000 
-21.000000 -49.000000 525.000000 
-7.000000 -35.000000 511.000000 
-7.000000 -49.000000 525.000000 
-21.000000 -35.000000 525.000000 
-7.000000 -35.000000 525.000000 
-49.000000 -21.000000 511.000000 
-35.000000 -21.000000 511.000000 
-49.000000 -7.000000 511.000000 
-49.000000 -21.000000 525.000000 
-35.000000 -7.000000 511.000000 
-35.000000 -21.000000 525.000000 
-49.000000 -7.000000 525.000000 
-35.000000 -7.000000 525.000000 
-49.000000 -49.000000 539.000000 
-35.000000 -49.000000 539.000000 
-49.000000 -35.000000 539.000000 
-49.000000 -49.000000 553.000000 
-35.000000 -35.000000 539.000000 
-35.000000 -49.000000 553.000000 
-49.000000 -35.000000 553.000000 
-35.000000 -35.000000 553.000000 
-21.000000 -21.000000 511.000000 
-7.000000 -21.000000 511.000000 
-21.000000 -7.000000 511.000000 
-21.000000 -21.000000 525.000000 
-7.000000 -7.000000 511.000000 
-7.000000 -21.000000 525.000000 
-21.000000 -7.000000 525.000000 
-7.000000 -7.000000 525.000000 
-21.000000 -49.000000 539.000000 
-7.000000 -49.000000 539.000000 
-21.000000 -35.000000 539.000000 
-21.000000 -49.000000 553.000000 
-7.000000 -35.000000 539.000000 
-7.000000 -49.000000 553.000000 
-21.000000 -35.000000 553.000000 
-7.000000 -35.000000 553.000000 
-49.000000 -21.000000 539.000000 
-35.000000 -21.000000 539.000000 
-49.000000 -7.000000 539.000000 
-49.000000 -21.000000 553.000000 
-35.000000 -7.000000 539.000000 
-35.000000 -21.000000 553.000000 
-49.000000 -7.000000 553.000000 
-35.000000 -7.000000 553.000000 
-21.000000 -21.000000 539.000000 
-7.000000 -21.000000 539.000000 
-21.000000 -7.000000 539.000000 
-21.000000 -21.000000 553.000000 
-7.000000 -7.000000 539.000000 
-7.000000 -21.000000 553.000000 
-21.000000 -7.000000 553.000000 
-7.000000 -7.000000 553.000000 
-105.000000 -119.000000 567.000000 
-105.000000 -119.000000 581.000000 
-91.000000 -161.000000 609.000000 
-63.000000 -119.000000 567.000000 
-77.000000 -119.000000 581.000000 
-63.000000 -119.000000 581.000000 
-105.000000 -119.000000 595.000000 
-91.000000 -119.000000 595.000000 
-63.000000 -119.000000 595.000000 
-63.000000 -133.000000 609.000000 
-77.000000 -119.000000 609.000000 
-63.000000 -119.000000 609.000000 
-63.000000 -175.000000 623.000000 
-105.000000 -189.000000 651.000000 
-63.000000 -175.000000 651.000000 
-49.000000 -119.000000 567.000000 
-49.000000 -119.000000 581.000000 
-35.000000 -119.000000 581.000000 
-21.000000 -119.000000 567.000000 
-7.000000 -119.000000 567.000000 
-21.000000 -119.000000 581.000000 
-7.000000 -119.000000 581.000000 
-49.000000 -119.000000 595.000000 
-49.000000 -133.000000 609.000000 
-35.000000 -119.000000 595.000000 
-35.000000 -133.000000 609.000000 
-49.000000 -119.000000 609.000000 
-35.000000 -119.000000 609.000000 
-21.000000 -119.000000 595.000000 
-21.000000 -133.000000 609.000000 
-7.000000 -133.000000 609.000000 
-21.000000 -119.000000 609.000000 
-7.000000 -119.000000 609.000000 
-35.000000 -175.000000 637.000000 
-21.000000 -175.000000 623.000000 
-21.000000 -175.000000 637.000000 
-7.000000 -175.000000 637.000000 
-49.000000 -189.000000 651.000000 
-49.000000 -175.000000 651.000000 
-35.000000 -175.000000 651.000000 
-35.000000 -175.000000 665.000000 
-105.000000 -161.000000 623.000000 
-63.000000 -161.000000 637.000000 
-77.000000 -147.000000 637.000000 
-63.000000 -147.000000 637.000000 
-91.000000 -119.000000 637.000000 
-105.000000 -147.000000 665.000000 
-63.000000 -133.000000 623.000000 
-77.000000 -119.000000 623.000000 
-77.000000 -133.000000 637.000000 
-63.000000 -119.000000 623.000000 
-63.000000 -133.000000 637.000000 
-77.000000 -119.000000 637.000000 
-63.000000 -119.000000 637.000000 
-77.000000 -161.000000 651.000000 
-63.000000 -161.000000 651.000000 
-77.000000 -147.000000 651.000000 
-63.000000 -147.000000 651.000000 
-77.000000 -147.000000 665.000000 
-63.000000 -147.000000 665.000000 
-91.000000 -133.000000 651.000000 
-105.000000 -119.000000 651.000000 
-105.000000 -133.000000 665.000000 
-91.000000 -119.000000 651.000000 
-91.000000 -133.000000 665.000000 
-105.000000 -119.000000 665.000000 
-91.000000 -119.000000 665.000000 
-77.000000 -133.000000 651.000000 
-63.000000 -133.000000 651.000000 
-77.000000 -119.000000 651.000000 
-77.000000 -133.000000 665.000000 
-63.000000 -119.000000 651.000000 
-63.000000 -133.000000 665.000000 
-77.000000 -119.000000 665.000000 
-63.000000 -119.000000 665.000000 
-49.000000 -161.000000 623.000000 
-49.000000 -161.000000 637.000000 
-49.000000 -147.000000 637.000000 
-35.000000 -147.000000 637.000000 
-7.000000 -161.000000 637.000000 
-21.000000 -147.000000 637.000000 
-49.000000 -133.000000 623.000000 
-35.000000 -133.000000 623.000000 
-49.000000 -119.000000 623.000000 
-49.000000 -133.000000 637.000000 
-35.000000 -119.000000 623.000000 
-35.000000 -133.000000 637.000000 
-49.000000 -119.000000 637.000000 
-35.000000 -119.000000 637.000000 
-49.000000 -161.000000 651.000000 
-49.000000 -147.000000 651.000000 
-35.000000 -147.000000 651.000000 
-35.000000 -161.000000 665.000000 
-35.000000 -147.000000 665.000000 
-21.000000 -133.000000 623.000000 
-7.000000 -133.000000 623.000000 
-21.000000 -119.000000 623.000000 
-21.000000 -133.000000 637.000000 
-7.000000 -119.000000 623.000000 
-7.000000 -133.000000 637.000000 
-21.000000 -119.000000 637.000000 
-7.000000 -119.000000 637.000000 
-21.000000 -147.000000 651.000000 
-49.000000 -133.000000 651.000000 
-35.000000 -133.000000 651.000000 
-49.000000 -119.000000 651.000000 
-49.000000 -133.000000 665.000000 
-35.000000 -119.000000 651.000000 
-35.000000 -133.000000 665.000000 
-49.000000 -119.000000 665.000000 
-21.000000 -133.000000 651.000000 
-7.000000 -133.000000 651.000000 
-21.000000 -119.000000 651.000000 
-7.000000 -119.000000 651.000000 
-175.000000 -105.000000 609.000000 
-189.000000 -91.000000 609.000000 
-175.000000 -91.000000 609.000000 
-189.000000 -77.000000 609.000000 
-175.000000 -63.000000 595.000000 
-175.000000 -77.000000 609.000000 
-189.000000 -63.000000 609.000000 
-175.000000 -63.000000 609.000000 
-119.000000 -105.000000 567.000000 
-119.000000 -91.000000 567.000000 
-119.000000 -105.000000 581.000000 
-133.000000 -91.000000 581.000000 
-119.000000 -91.000000 581.000000 
-161.000000 -105.000000 595.000000 
-147.000000 -105.000000 595.000000 
-161.000000 -91.000000 595.000000 
-161.000000 -105.000000 609.000000 
-147.000000 -91.000000 595.000000 
-147.000000 -105.000000 609.000000 
-161.000000 -91.000000 609.000000 
-147.000000 -91.000000 609.000000 
-119.000000 -77.000000 567.000000 
-133.000000 -77.000000 581.000000 
-119.000000 -63.000000 567.000000 
-119.000000 -77.000000 581.000000 
-133.000000 -63.000000 581.000000 
-119.000000 -63.000000 581.000000 
-133.000000 -105.000000 595.000000 
-119.000000 -105.000000 595.000000 
-133.000000 -91.000000 595.000000 
-133.000000 -105.000000 609.000000 
-119.000000 -91.000000 595.000000 
-133.000000 -91.000000 609.000000 
-161.000000 -77.000000 595.000000 
-147.000000 -77.000000 595.000000 
-161.000000 -63.000000 595.000000 
-161.000000 -77.000000 609.000000 
-147.000000 -63.000000 595.000000 
-147.000000 -77.000000 609.000000 
-161.000000 -63.000000 609.000000 
-147.000000 -63.000000 609.000000 
-133.000000 -77.000000 595.000000 
-119.000000 -77.000000 595.000000 
-133.000000 -63.000000 595.000000 
-133.000000 -77.000000 609.000000 
-119.000000 -63.000000 595.000000 
-133.000000 -63.000000 609.000000 
-175.000000 -49.000000 595.000000 
-189.000000 -49.000000 609.000000 
-175.000000 -35.000000 595.000000 
-175.000000 -49.000000 609.000000 
-203.000000 -105.000000 637.000000 
-203.000000 -91.000000 637.000000 
-189.000000 -105.000000 623.000000 
-175.000000 -105.000000 623.000000 
-189.000000 -91.000000 623.000000 
-189.000000 -105.000000 637.000000 
-175.000000 -91.000000 623.000000 
-175.000000 -105.000000 637.000000 
-189.000000 -91.000000 637.000000 
-175.000000 -91.000000 637.000000 
-203.000000 -77.000000 637.000000 
-203.000000 -63.000000 637.000000 
-217.000000 -105.000000 651.000000 
-203.000000 -105.000000 651.000000 
-217.000000 -91.000000 651.000000 
-217.000000 -105.000000 665.000000 
-203.000000 -91.000000 651.000000 
-203.000000 -105.000000 665.000000 
-217.000000 -91.000000 665.000000 
-203.000000 -91.000000 665.000000 
-189.000000 -77.000000 623.000000 
-175.000000 -77.000000 623.000000 
-189.000000 -63.000000 623.000000 
-189.000000 -77.000000 637.000000 
-175.000000 -63.000000 623.000000 
-175.000000 -77.000000 637.000000 
-189.000000 -63.000000 637.000000 
-175.000000 -63.000000 637.000000 
-189.000000 -105.000000 651.000000 
-175.000000 -105.000000 651.000000 
-189.000000 -91.000000 651.000000 
-189.000000 -105.000000 665.000000 
-175.000000 -91.000000 651.000000 
-189.000000 -91.000000 665.000000 
-217.000000 -77.000000 651.000000 
-203.000000 -77.000000 651.000000 
-217.000000 -63.000000 651.000000 
-217.000000 -77.000000 665.000000 
-203.000000 -63.000000 651.000000 
-203.000000 -77.000000 665.000000 
-217.000000 -63.000000 665.000000 
-203.000000 -63.000000 665.000000 
-189.000000 -77.000000 651.000000 
-175.000000 -77.000000 651.000000 
-189.000000 -63.000000 651.000000 
-189.000000 -77.000000 665.000000 
-119.000000 -49.000000 567.000000 
-133.000000 -49.000000 581.000000 
-119.000000 -35.000000 567.000000 
-119.000000 -49.000000 581.000000 
-133.000000 -35.000000 581.000000 
-119.000000 -35.000000 581.000000 
-161.000000 -49.000000 595.000000 
-147.000000 -49.000000 595.000000 
-161.000000 -35.000000 595.000000 
-161.000000 -49.000000 609.000000 
-147.000000 -35.000000 595.000000 
-147.000000 -49.000000 609.000000 
-161.000000 -35.000000 609.000000 
-147.000000 -35.000000 609.000000 
-119.000000 -21.000000 567.000000 
-133.000000 -21.000000 581.000000 
-119.000000 -21.000000 581.000000 
-133.000000 -49.000000 595.000000 
-119.000000 -49.000000 595.000000 
-133.000000 -35.000000 595.000000 
-119.000000 -35.000000 595.000000 
-161.000000 -21.000000 595.000000 
-147.000000 -21.000000 595.000000 
-133.000000 -21.000000 595.000000 
-119.000000 -21.000000 595.000000 
-161.000000 -105.000000 623.000000 
-161.000000 -91.000000 623.000000 
-147.000000 -91.000000 623.000000 
-161.000000 -91.000000 637.000000 
-161.000000 -77.000000 623.000000 
-147.000000 -77.000000 623.000000 
-161.000000 -63.000000 623.000000 
-161.000000 -77.000000 637.000000 
-147.000000 -63.000000 623.000000 
-119.000000 -105.000000 651.000000 
-119.000000 -91.000000 651.000000 
-119.000000 -105.000000 665.000000 
-119.000000 -91.000000 665.000000 
-203.000000 -49.000000 637.000000 
-189.000000 -49.000000 623.000000 
-175.000000 -49.000000 623.000000 
-189.000000 -49.000000 637.000000 
-175.000000 -49.000000 637.000000 
-203.000000 -49.000000 651.000000 
-217.000000 -49.000000 665.000000 
-203.000000 -49.000000 665.000000 
-189.000000 -49.000000 651.000000 
-161.000000 -49.000000 623.000000 
-105.000000 -105.000000 567.000000 
-105.000000 -91.000000 567.000000 
-105.000000 -105.000000 581.000000 
-91.000000 -91.000000 567.000000 
-105.000000 -91.000000 581.000000 
-63.000000 -105.000000 567.000000 
-77.000000 -105.000000 581.000000 
-63.000000 -91.000000 567.000000 
-63.000000 -105.000000 581.000000 
-77.000000 -91.000000 581.000000 
-63.000000 -91.000000 581.000000 
-105.000000 -77.000000 567.000000 
-91.000000 -77.000000 567.000000 
-105.000000 -63.000000 567.000000 
-105.000000 -77.000000 581.000000 
-91.000000 -63.000000 567.000000 
-105.000000 -63.000000 581.000000 
-105.000000 -105.000000 595.000000 
-91.000000 -105.000000 595.000000 
-91.000000 -91.000000 609.000000 
-77.000000 -77.000000 581.000000 
-63.000000 -63.000000 567.000000 
-63.000000 -77.000000 581.000000 
-63.000000 -63.000000 581.000000 
-63.000000 -105.000000 595.000000 
-77.000000 -91.000000 595.000000 
-77.000000 -105.000000 609.000000 
-63.000000 -91.000000 595.000000 
-63.000000 -105.000000 609.000000 
-77.000000 -91.000000 609.000000 
-63.000000 -91.000000 609.000000 
-105.000000 -77.000000 595.000000 
-91.000000 -63.000000 595.000000 
-91.000000 -63.000000 609.000000 
-77.000000 -77.000000 595.000000 
-63.000000 -77.000000 595.000000 
-77.000000 -63.000000 595.000000 
-77.000000 -77.000000 609.000000 
-63.000000 -63.000000 595.000000 
-63.000000 -77.000000 609.000000 
-77.000000 -63.000000 609.000000 
-63.000000 -63.000000 609.000000 
-35.000000 -105.000000 567.000000 
-35.000000 -91.000000 567.000000 
-35.000000 -105.000000 581.000000 
-49.000000 -91.000000 581.000000 
-35.000000 -91.000000 581.000000 
-21.000000 -105.000000 567.000000 
-7.000000 -105.000000 567.000000 
-21.000000 -91.000000 567.000000 
-21.000000 -105.000000 581.000000 
-7.000000 -91.000000 567.000000 
-7.000000 -105.000000 581.000000 
-21.000000 -91.000000 581.000000 
-7.000000 -91.000000 581.000000 
-49.000000 -77.000000 567.000000 
-35.000000 -77.000000 567.000000 
-49.000000 -63.000000 567.000000 
-49.000000 -77.000000 581.000000 
-35.000000 -63.000000 567.000000 
-35.000000 -77.000000 581.000000 
-49.000000 -63.000000 581.000000 
-35.000000 -63.000000 581.000000 
-49.000000 -105.000000 595.000000 
-35.000000 -105.000000 595.000000 
-49.000000 -91.000000 595.000000 
-49.000000 -105.000000 609.000000 
-35.000000 -91.000000 595.000000 
-35.000000 -105.000000 609.000000 
-49.000000 -91.000000 609.000000 
-35.000000 -91.000000 609.000000 
-21.000000 -77.000000 567.000000 
-7.000000 -77.000000 567.000000 
-21.000000 -63.000000 567.000000 
-21.000000 -77.000000 581.000000 
-7.000000 -63.000000 567.000000 
-7.000000 -77.000000 581.000000 
-21.000000 -63.000000 581.000000 
-7.000000 -63.000000 581.000000 
-21.000000 -105.000000 595.000000 
-7.000000 -105.000000 595.000000 
-21.000000 -91.000000 595.000000 
-21.000000 -105.000000 609.000000 
-7.000000 -91.000000 595.000000 
-7.000000 -105.000000 609.000000 
-21.000000 -91.000000 609.000000 
-7.000000 -91.000000 609.000000 
-49.000000 -77.000000 595.000000 
-35.000000 -77.000000 595.000000 
-49.000000 -63.000000 595.000000 
-49.000000 -77.000000 609.000000 
-35.000000 -63.000000 595.000000 
-35.000000 -77.000000 609.000000 
-49.000000 -63.000000 609.000000 
-35.000000 -63.000000 609.000000 
-21.000000 -77.000000 595.000000 
-7.000000 -77.000000 595.000000 
-21.000000 -63.000000 595.000000 
-21.000000 -77.000000 609.000000 
-7.000000 -63.000000 595.000000 
-7.000000 -77.000000 609.000000 
-21.000000 -63.000000 609.000000 
-7.000000 -63.000000 609.000000 
-105.000000 -49.000000 567.000000 
-91.000000 -49.000000 567.000000 
-105.000000 -35.000000 567.000000 
-105.000000 -49.000000 581.000000 
-105.000000 -35.000000 581.000000 
-63.000000 -49.000000 567.000000 
-77.000000 -35.000000 567.000000 
-77.000000 -49.000000 581.000000 
-63.000000 -35.000000 567.000000 
-63.000000 -49.000000 581.000000 
-77.000000 -35.000000 581.000000 
-63.000000 -35.000000 581.000000 
-105.000000 -21.000000 567.000000 
-105.000000 -21.000000 581.000000 
-91.000000 -49.000000 595.000000 
-91.000000 -35.000000 595.000000 
-91.000000 -49.000000 609.000000 
-91.000000 -35.000000 609.000000 
-77.000000 -21.000000 567.000000 
-63.000000 -21.000000 567.000000 
-77.000000 -7.000000 567.000000 
-77.000000 -21.000000 581.000000 
-63.000000 -7.000000 567.000000 
-63.000000 -21.000000 581.000000 
-77.000000 -49.000000 595.000000 
-63.000000 -49.000000 595.000000 
-77.000000 -35.000000 595.000000 
-77.000000 -49.000000 609.000000 
-63.000000 -35.000000 595.000000 
-63.000000 -49.000000 609.000000 
-77.000000 -35.000000 609.000000 
-63.000000 -35.000000 609.000000 
-91.000000 -21.000000 595.000000 
-77.000000 -21.000000 595.000000 
-63.000000 -21.000000 595.000000 
-105.000000 -105.000000 637.000000 
-91.000000 -91.000000 623.000000 
-91.000000 -105.000000 637.000000 
-105.000000 -91.000000 637.000000 
-91.000000 -91.000000 637.000000 
-77.000000 -105.000000 623.000000 
-63.000000 -105.000000 623.000000 
-77.000000 -91.000000 623.000000 
-77.000000 -105.000000 637.000000 
-63.000000 -91.000000 623.000000 
-63.000000 -105.000000 637.000000 
-77.000000 -91.000000 637.000000 
-63.000000 -91.000000 637.000000 
-105.000000 -77.000000 623.000000 
-91.000000 -77.000000 623.000000 
-105.000000 -63.000000 623.000000 
-105.000000 -77.000000 637.000000 
-91.000000 -63.000000 623.000000 
-91.000000 -77.000000 637.000000 
-105.000000 -63.000000 637.000000 
-91.000000 -63.000000 637.000000 
-105.000000 -105.000000 651.000000 
-91.000000 -105.000000 651.000000 
-105.000000 -91.000000 651.000000 
-105.000000 -105.000000 665.000000 
-91.000000 -91.000000 651.000000 
-91.000000 -105.000000 665.000000 
-105.000000 -91.000000 665.000000 
-91.000000 -91.000000 665.000000 
-77.000000 -77.000000 623.000000 
-63.000000 -77.000000 623.000000 
-77.000000 -63.000000 623.000000 
-77.000000 -77.000000 637.000000 
-63.000000 -63.000000 623.000000 
-63.000000 -77.000000 637.000000 
-77.000000 -63.000000 637.000000 
-63.000000 -63.000000 637.000000 
-77.000000 -105.000000 651.000000 
-63.000000 -105.000000 651.000000 
-77.000000 -91.000000 651.000000 
-77.000000 -105.000000 665.000000 
-63.000000 -91.000000 651.000000 
-63.000000 -105.000000 665.000000 
-77.000000 -91.000000 665.000000 
-63.000000 -91.000000 665.000000 
-105.000000 -77.000000 651.000000 
-91.000000 -77.000000 651.000000 
-105.000000 -77.000000 665.000000 
-91.000000 -63.000000 651.000000 
-91.000000 -77.000000 665.000000 
-77.000000 -77.000000 651.000000 
-63.000000 -77.000000 651.000000 
-77.000000 -63.000000 651.000000 
-77.000000 -77.000000 665.000000 
-63.000000 -63.000000 651.000000 
-63.000000 -77.000000 665.000000 
-49.000000 -49.000000 567.000000 
-35.000000 -49.000000 567.000000 
-49.000000 -35.000000 567.000000 
-49.000000 -49.000000 581.000000 
-35.000000 -35.000000 567.000000 
-35.000000 -49.000000 581.000000 
-49.000000 -35.000000 581.000000 
-35.000000 -35.000000 581.000000 
-21.000000 -49.000000 567.000000 
-7.000000 -49.000000 567.000000 
-21.000000 -35.000000 567.000000 
-21.000000 -49.000000 581.000000 
-7.000000 -35.000000 567.000000 
-7.000000 -49.000000 581.000000 
-21.000000 -35.000000 581.000000 
-7.000000 -35.000000 581.000000 
-49.000000 -21.000000 567.000000 
-35.000000 -21.000000 567.000000 
-49.000000 -7.000000 567.000000 
-49.000000 -21.000000 581.000000 
-35.000000 -7.000000 567.000000 
-35.000000 -21.000000 581.000000 
-49.000000 -49.000000 595.000000 
-35.000000 -49.000000 595.000000 
-49.000000 -35.000000 595.000000 
-49.000000 -49.000000 609.000000 
-35.000000 -35.000000 595.000000 
-35.000000 -49.000000 609.000000 
-49.000000 -35.000000 609.000000 
-35.000000 -35.000000 609.000000 
-21.000000 -21.000000 567.000000 
-7.000000 -21.000000 567.000000 
-21.000000 -7.000000 567.000000 
-21.000000 -21.000000 581.000000 
-7.000000 -7.000000 567.000000 
-7.000000 -21.000000 581.000000 
-21.000000 -7.000000 581.000000 
-7.000000 -7.000000 581.000000 
-21.000000 -49.000000 595.000000 
-7.000000 -49.000000 595.000000 
-21.000000 -35.000000 595.000000 
-21.000000 -49.000000 609.000000 
-7.000000 -35.000000 595.000000 
-7.000000 -49.000000 609.000000 
-21.000000 -35.000000 609.000000 
-7.000000 -35.000000 609.000000 
-49.000000 -21.000000 595.000000 
-35.000000 -21.000000 595.000000 
-49.000000 -21.000000 609.000000 
-35.000000 -21.000000 609.000000 
-21.000000 -21.000000 595.000000 
-7.000000 -21.000000 595.000000 
-21.000000 -21.000000 609.000000 
-7.000000 -21.000000 609.000000 
-49.000000 -105.000000 623.000000 
-35.000000 -105.000000 623.000000 
-49.000000 -91.000000 623.000000 
-49.000000 -105.000000 637.000000 
-35.000000 -91.000000 623.000000 
-35.000000 -105.000000 637.000000 
-49.000000 -91.000000 637.000000 
-35.000000 -91.000000 637.000000 
-21.000000 -105.000000 623.000000 
-7.000000 -105.000000 623.000000 
-21.000000 -91.000000 623.000000 
-21.000000 -105.000000 637.000000 
-7.000000 -105.000000 637.000000 
-21.000000 -91.000000 637.000000 
-7.000000 -91.000000 637.000000 
-49.000000 -77.000000 623.000000 
-35.000000 -77.000000 623.000000 
-49.000000 -63.000000 623.000000 
-49.000000 -77.000000 637.000000 
-35.000000 -63.000000 623.000000 
-35.000000 -77.000000 637.000000 
-49.000000 -63.000000 637.000000 
-35.000000 -63.000000 637.000000 
-49.000000 -105.000000 651.000000 
-35.000000 -105.000000 651.000000 
-49.000000 -91.000000 651.000000 
-49.000000 -105.000000 665.000000 
-35.000000 -91.000000 651.000000 
-35.000000 -105.000000 665.000000 
-49.000000 -91.000000 665.000000 
-35.000000 -91.000000 665.000000 
-21.000000 -77.000000 623.000000 
-7.000000 -77.000000 623.000000 
-21.000000 -77.000000 637.000000 
-7.000000 -63.000000 623.000000 
-7.000000 -77.000000 637.000000 
-21.000000 -63.000000 637.000000 
-7.000000 -63.000000 637.000000 
-21.000000 -105.000000 651.000000 
-7.000000 -105.000000 651.000000 
-21.000000 -91.000000 651.000000 
-49.000000 -77.000000 651.000000 
-35.000000 -77.000000 651.000000 
-49.000000 -63.000000 651.000000 
-49.000000 -77.000000 665.000000 
-35.000000 -63.000000 651.000000 
-35.000000 -77.000000 665.000000 
-21.000000 -77.000000 651.000000 
-21.000000 -63.000000 651.000000 
-91.000000 -49.000000 623.000000 
-91.000000 -49.000000 637.000000 
-77.000000 -49.000000 623.000000 
-63.000000 -49.000000 623.000000 
-77.000000 -49.000000 637.000000 
-63.000000 -49.000000 637.000000 
-91.000000 -49.000000 651.000000 
-77.000000 -49.000000 651.000000 
-63.000000 -49.000000 651.000000 
-49.000000 -49.000000 623.000000 
-35.000000 -49.000000 623.000000 
-49.000000 -49.000000 637.000000 
-35.000000 -49.000000 637.000000 
-21.000000 -49.000000 623.000000 
-7.000000 -49.000000 623.000000 
-21.000000 -35.000000 623.000000 
-21.000000 -49.000000 637.000000 
-7.000000 -35.000000 623.000000 
-7.000000 -49.000000 637.000000 
-49.000000 -49.000000 651.000000 
-35.000000 -49.000000 651.000000 
-21.000000 -49.000000 651.000000 
-119.000000 -245.000000 679.000000 
-133.000000 -231.000000 679.000000 
-133.000000 -245.000000 693.000000 
-119.000000 -231.000000 679.000000 
-119.000000 -245.000000 693.000000 
-133.000000 -231.000000 693.000000 
-119.000000 -231.000000 693.000000 
-133.000000 -245.000000 707.000000 
-119.000000 -245.000000 707.000000 
-133.000000 -231.000000 707.000000 
-119.000000 -231.000000 707.000000 
-119.000000 -245.000000 721.000000 
-133.000000 -231.000000 721.000000 
-119.000000 -231.000000 721.000000 
-105.000000 -231.000000 693.000000 
-105.000000 -231.000000 707.000000 
-105.000000 -231.000000 721.000000 
-427.000000 -175.000000 679.000000 
-413.000000 -189.000000 679.000000 
-399.000000 -189.000000 679.000000 
-413.000000 -175.000000 679.000000 
-399.000000 -175.000000 679.000000 
-399.000000 -175.000000 693.000000 
-385.000000 -189.000000 679.000000 
-385.000000 -175.000000 679.000000 
-385.000000 -175.000000 693.000000 
-343.000000 -189.000000 679.000000 
-343.000000 -175.000000 679.000000 
-427.000000 -161.000000 679.000000 
-427.000000 -147.000000 679.000000 
-413.000000 -161.000000 679.000000 
-399.000000 -161.000000 679.000000 
-413.000000 -147.000000 679.000000 
-399.000000 -147.000000 679.000000 
-399.000000 -161.000000 693.000000 
-413.000000 -147.000000 693.000000 
-399.000000 -147.000000 693.000000 
-413.000000 -133.000000 679.000000 
-399.000000 -133.000000 679.000000 
-413.000000 -133.000000 693.000000 
-399.000000 -119.000000 679.000000 
-399.000000 -133.000000 693.000000 
-399.000000 -119.000000 693.000000 
-385.000000 -161.000000 679.000000 
-385.000000 -147.000000 679.000000 
-385.000000 -161.000000 693.000000 
-371.000000 -161.000000 693.000000 
-385.000000 -147.000000 693.000000 
-371.000000 -147.000000 693.000000 
-343.000000 -161.000000 679.000000 
-357.000000 -161.000000 693.000000 
-343.000000 -147.000000 679.000000 
-357.000000 -147.000000 693.000000 
-343.000000 -147.000000 693.000000 
-385.000000 -133.000000 679.000000 
-385.000000 -119.000000 679.000000 
-385.000000 -133.000000 693.000000 
-371.000000 -133.000000 693.000000 
-385.000000 -119.000000 693.000000 
-371.000000 -119.000000 693.000000 
-343.000000 -133.000000 679.000000 
-357.000000 -133.000000 693.000000 
-343.000000 -119.000000 679.000000 
-343.000000 -133.000000 693.000000 
-357.000000 -119.000000 693.000000 
-343.000000 -119.000000 693.000000 
-343.000000 -133.000000 707.000000 
-343.000000 -119.000000 707.000000 
-329.000000 -189.000000 679.000000 
-315.000000 -189.000000 679.000000 
-329.000000 -175.000000 679.000000 
-315.000000 -175.000000 679.000000 
-301.000000 -175.000000 679.000000 
-287.000000 -175.000000 679.000000 
-259.000000 -189.000000 679.000000 
-245.000000 -189.000000 679.000000 
-231.000000 -175.000000 679.000000 
-329.000000 -161.000000 679.000000 
-315.000000 -161.000000 679.000000 
-329.000000 -147.000000 679.000000 
-315.000000 -147.000000 679.000000 
-329.000000 -147.000000 693.000000 
-301.000000 -161.000000 679.000000 
-287.000000 -161.000000 679.000000 
-301.000000 -147.000000 679.000000 
-287.000000 -147.000000 679.000000 
-329.000000 -133.000000 679.000000 
-315.000000 -133.000000 679.000000 
-329.000000 -133.000000 693.000000 
-315.000000 -119.000000 679.000000 
-315.000000 -133.000000 693.000000 
-329.000000 -119.000000 693.000000 
-315.000000 -119.000000 693.000000 
-301.000000 -133.000000 679.000000 
-287.000000 -133.000000 679.000000 
-301.000000 -119.000000 679.000000 
-301.000000 -133.000000 693.000000 
-287.000000 -119.000000 679.000000 
-287.000000 -133.000000 693.000000 
-301.000000 -119.000000 693.000000 
-287.000000 -119.000000 693.000000 
-273.000000 -161.000000 679.000000 
-259.000000 -161.000000 679.000000 
-273.000000 -147.000000 679.000000 
-259.000000 -147.000000 679.000000 
-245.000000 -147.000000 679.000000 
-273.000000 -133.000000 679.000000 
-259.000000 -133.000000 679.000000 
-273.000000 -119.000000 679.000000 
-273.000000 -133.000000 693.000000 
-259.000000 -119.000000 679.000000 
-259.000000 -133.000000 693.000000 
-273.000000 -119.000000 693.000000 
-245.000000 -133.000000 679.000000 
-231.000000 -133.000000 679.000000 
-245.000000 -119.000000 679.000000 
-231.000000 -119.000000 679.000000 
-371.000000 -105.000000 693.000000 
-357.000000 -105.000000 693.000000 
-343.000000 -105.000000 693.000000 
-343.000000 -105.000000 707.000000 
-329.000000 -105.000000 679.000000 
-315.000000 -105.000000 679.000000 
-329.000000 -91.000000 679.000000 
-329.000000 -105.000000 693.000000 
-315.000000 -91.000000 679.000000 
-315.000000 -105.000000 693.000000 
-301.000000 -105.000000 679.000000 
-287.000000 -105.000000 679.000000 
-301.000000 -91.000000 679.000000 
-301.000000 -105.000000 693.000000 
-287.000000 -91.000000 679.000000 
-287.000000 -105.000000 693.000000 
-329.000000 -105.000000 707.000000 
-273.000000 -105.000000 679.000000 
-259.000000 -105.000000 679.000000 
-273.000000 -91.000000 679.000000 
-273.000000 -105.000000 693.000000 
-259.000000 -91.000000 679.000000 
-245.000000 -105.000000 679.000000 
-231.000000 -105.000000 679.000000 
-245.000000 -91.000000 679.000000 
-231.000000 -91.000000 679.000000 
-259.000000 -77.000000 679.000000 
-245.000000 -77.000000 679.000000 
-231.000000 -77.000000 679.000000 
-133.000000 -217.000000 721.000000 
-119.000000 -217.000000 721.000000 
-217.000000 -133.000000 679.000000 
-217.000000 -119.000000 679.000000 
-203.000000 -119.000000 679.000000 
-119.000000 -119.000000 679.000000 
-119.000000 -133.000000 693.000000 
-119.000000 -119.000000 693.000000 
-133.000000 -147.000000 707.000000 
-133.000000 -161.000000 721.000000 
-119.000000 -147.000000 707.000000 
-119.000000 -161.000000 721.000000 
-133.000000 -147.000000 721.000000 
-119.000000 -147.000000 721.000000 
-133.000000 -133.000000 707.000000 
-119.000000 -133.000000 707.000000 
-133.000000 -133.000000 721.000000 
-119.000000 -119.000000 707.000000 
-119.000000 -133.000000 721.000000 
-119.000000 -119.000000 721.000000 
-133.000000 -217.000000 735.000000 
-119.000000 -217.000000 735.000000 
-133.000000 -203.000000 735.000000 
-119.000000 -203.000000 735.000000 
-133.000000 -203.000000 749.000000 
-119.000000 -203.000000 749.000000 
-133.000000 -189.000000 735.000000 
-119.000000 -189.000000 735.000000 
-133.000000 -175.000000 735.000000 
-133.000000 -189.000000 749.000000 
-119.000000 -175.000000 735.000000 
-119.000000 -189.000000 749.000000 
-133.000000 -175.000000 749.000000 
-119.000000 -175.000000 749.000000 
-133.000000 -161.000000 735.000000 
-119.000000 -161.000000 735.000000 
-133.000000 -147.000000 735.000000 
-119.000000 -147.000000 735.000000 
-105.000000 -217.000000 721.000000 
-91.000000 -217.000000 721.000000 
-77.000000 -175.000000 721.000000 
-63.000000 -175.000000 721.000000 
-35.000000 -175.000000 679.000000 
-105.000000 -147.000000 693.000000 
-91.000000 -147.000000 693.000000 
-77.000000 -161.000000 679.000000 
-63.000000 -161.000000 679.000000 
-105.000000 -119.000000 679.000000 
-105.000000 -133.000000 693.000000 
-91.000000 -119.000000 679.000000 
-91.000000 -133.000000 693.000000 
-105.000000 -119.000000 693.000000 
-91.000000 -119.000000 693.000000 
-91.000000 -161.000000 707.000000 
-105.000000 -147.000000 707.000000 
-105.000000 -161.000000 721.000000 
-91.000000 -147.000000 707.000000 
-91.000000 -161.000000 721.000000 
-105.000000 -147.000000 721.000000 
-91.000000 -147.000000 721.000000 
-77.000000 -119.000000 679.000000 
-77.000000 -133.000000 693.000000 
-63.000000 -119.000000 679.000000 
-63.000000 -133.000000 693.000000 
-77.000000 -119.000000 693.000000 
-63.000000 -119.000000 693.000000 
-77.000000 -147.000000 707.000000 
-77.000000 -161.000000 721.000000 
-77.000000 -147.000000 721.000000 
-63.000000 -147.000000 721.000000 
-105.000000 -133.000000 707.000000 
-91.000000 -133.000000 707.000000 
-105.000000 -119.000000 707.000000 
-105.000000 -133.000000 721.000000 
-91.000000 -119.000000 707.000000 
-91.000000 -133.000000 721.000000 
-105.000000 -119.000000 721.000000 
-77.000000 -133.000000 707.000000 
-63.000000 -133.000000 707.000000 
-77.000000 -119.000000 707.000000 
-77.000000 -133.000000 721.000000 
-63.000000 -119.000000 707.000000 
-63.000000 -133.000000 721.000000 
-105.000000 -217.000000 735.000000 
-91.000000 -217.000000 735.000000 
-105.000000 -203.000000 735.000000 
-91.000000 -203.000000 735.000000 
-105.000000 -203.000000 749.000000 
-105.000000 -189.000000 735.000000 
-91.000000 -189.000000 735.000000 
-105.000000 -175.000000 735.000000 
-105.000000 -189.000000 749.000000 
-91.000000 -175.000000 735.000000 
-77.000000 -189.000000 735.000000 
-77.000000 -175.000000 735.000000 
-63.000000 -175.000000 735.000000 
-35.000000 -161.000000 679.000000 
-49.000000 -119.000000 679.000000 
-49.000000 -119.000000 693.000000 
-49.000000 -133.000000 707.000000 
-49.000000 -119.000000 707.000000 
-105.000000 -161.000000 735.000000 
-91.000000 -161.000000 735.000000 
-105.000000 -147.000000 735.000000 
-91.000000 -147.000000 735.000000 
-77.000000 -161.000000 735.000000 
-63.000000 -161.000000 735.000000 
-77.000000 -147.000000 735.000000 
-63.000000 -147.000000 735.000000 
-217.000000 -105.000000 679.000000 
-203.000000 -105.000000 679.000000 
-217.000000 -91.000000 679.000000 
-217.000000 -77.000000 679.000000 
-119.000000 -105.000000 679.000000 
-119.000000 -105.000000 693.000000 
-105.000000 -105.000000 679.000000 
-91.000000 -105.000000 679.000000 
-105.000000 -91.000000 679.000000 
-105.000000 -105.000000 693.000000 
-91.000000 -91.000000 679.000000 
-91.000000 -105.000000 693.000000 
-91.000000 -91.000000 693.000000 
-77.000000 -105.000000 679.000000 
-63.000000 -105.000000 679.000000 
-77.000000 -91.000000 679.000000 
-77.000000 -105.000000 693.000000 
-63.000000 -91.000000 679.000000 
-63.000000 -105.000000 693.000000 
-105.000000 -105.000000 707.000000 
-91.000000 -105.000000 707.000000 
-77.000000 -105.000000 707.000000 
-63.000000 -105.000000 707.000000 
-49.000000 -105.000000 679.000000 
-35.000000 -105.000000 679.000000 
-49.000000 -91.000000 679.000000 
-49.000000 -105.000000 693.000000 
-35.000000 -91.000000 679.000000 
7.000000 7.000000 -441.000000 
21.000000 7.000000 -441.000000 
7.000000 7.000000 -427.000000 
21.000000 7.000000 -427.000000 
7.000000 7.000000 -413.000000 
21.000000 7.000000 -413.000000 
7.000000 7.000000 -399.000000 
21.000000 7.000000 -399.000000 
7.000000 7.000000 -385.000000 
21.000000 7.000000 -385.000000 
7.000000 7.000000 -371.000000 
21.000000 7.000000 -371.000000 
7.000000 7.000000 -357.000000 
21.000000 7.000000 -357.000000 
7.000000 7.000000 -343.000000 
21.000000 7.000000 -343.000000 
7.000000 7.000000 -329.000000 
21.000000 7.000000 -329.000000 
7.000000 7.000000 -315.000000 
21.000000 7.000000 -315.000000 
7.000000 21.000000 -315.000000 
7.000000 7.000000 -301.000000 
21.000000 7.000000 -301.000000 
7.000000 21.000000 -301.000000 
7.000000 7.000000 -231.000000 
21.000000 7.000000 -231.000000 
35.000000 7.000000 -231.000000 
385.000000 161.000000 -231.000000 
399.000000 189.000000 -301.000000 
413.000000 189.000000 -301.000000 
413.000000 175.000000 -287.000000 
399.000000 189.000000 -287.000000 
413.000000 189.000000 -287.000000 
399.000000 161.000000 -245.000000 
399.000000 161.000000 -231.000000 
385.000000 175.000000 -231.000000 
399.000000 175.000000 -273.000000 
413.000000 175.000000 -273.000000 
399.000000 189.000000 -273.000000 
399.000000 175.000000 -259.000000 
413.000000 189.000000 -273.000000 
413.000000 175.000000 -259.000000 
399.000000 189.000000 -259.000000 
413.000000 189.000000 -259.000000 
399.000000 175.000000 -245.000000 
399.000000 189.000000 -245.000000 
399.000000 175.000000 -231.000000 
7.000000 7.000000 -217.000000 
21.000000 7.000000 -217.000000 
7.000000 7.000000 -203.000000 
21.000000 7.000000 -203.000000 
35.000000 7.000000 -217.000000 
49.000000 7.000000 -217.000000 
35.000000 7.000000 -203.000000 
49.000000 7.000000 -203.000000 
7.000000 7.000000 -189.000000 
21.000000 7.000000 -189.000000 
7.000000 7.000000 -175.000000 
49.000000 7.000000 -189.000000 
49.000000 21.000000 -189.000000 
63.000000 7.000000 -203.000000 
63.000000 7.000000 -189.000000 
77.000000 7.000000 -189.000000 
63.000000 21.000000 -189.000000 
63.000000 7.000000 -175.000000 
77.000000 21.000000 -189.000000 
77.000000 7.000000 -175.000000 
63.000000 21.000000 -175.000000 
77.000000 21.000000 -175.000000 
91.000000 7.000000 -175.000000 
91.000000 21.000000 -175.000000 
7.000000 7.000000 -161.000000 
7.000000 7.000000 -147.000000 
77.000000 7.000000 -161.000000 
77.000000 21.000000 -161.000000 
91.000000 7.000000 -161.000000 
105.000000 7.000000 -161.000000 
91.000000 21.000000 -161.000000 
91.000000 7.000000 -147.000000 
105.000000 21.000000 -161.000000 
105.000000 7.000000 -147.000000 
91.000000 21.000000 -147.000000 
105.000000 21.000000 -147.000000 
77.000000 35.000000 -161.000000 
91.000000 35.000000 -161.000000 
105.000000 35.000000 -161.000000 
91.000000 35.000000 -147.000000 
105.000000 35.000000 -147.000000 
91.000000 49.000000 -147.000000 
105.000000 49.000000 -147.000000 
105.000000 49.000000 -133.000000 
119.000000 7.000000 -147.000000 
119.000000 21.000000 -147.000000 
133.000000 21.000000 -147.000000 
119.000000 35.000000 -161.000000 
119.000000 35.000000 -147.000000 
133.000000 35.000000 -147.000000 
119.000000 49.000000 -147.000000 
133.000000 49.000000 -147.000000 
119.000000 21.000000 -133.000000 
133.000000 21.000000 -133.000000 
147.000000 21.000000 -133.000000 
119.000000 35.000000 -133.000000 
133.000000 35.000000 -133.000000 
119.000000 49.000000 -133.000000 
133.000000 49.000000 -133.000000 
147.000000 35.000000 -133.000000 
161.000000 35.000000 -133.000000 
147.000000 49.000000 -133.000000 
147.000000 35.000000 -119.000000 
161.000000 49.000000 -133.000000 
161.000000 35.000000 -119.000000 
147.000000 49.000000 -119.000000 
161.000000 49.000000 -119.000000 
175.000000 49.000000 -133.000000 
175.000000 35.000000 -119.000000 
189.000000 35.000000 -119.000000 
175.000000 49.000000 -119.000000 
189.000000 49.000000 -119.000000 
203.000000 35.000000 -119.000000 
203.000000 49.000000 -119.000000 
217.000000 49.000000 -119.000000 
119.000000 63.000000 -133.000000 
133.000000 63.000000 -133.000000 
147.000000 63.000000 -133.000000 
161.000000 63.000000 -133.000000 
147.000000 63.000000 -119.000000 
161.000000 63.000000 -119.000000 
147.000000 77.000000 -119.000000 
161.000000 77.000000 -119.000000 
161.000000 91.000000 -119.000000 
175.000000 63.000000 -133.000000 
175.000000 63.000000 -119.000000 
189.000000 63.000000 -119.000000 
175.000000 77.000000 -119.000000 
