-248.500000 -227.500000 437.500000 
-248.500000 -234.500000 444.500000 
-241.500000 -234.500000 444.500000 
-248.500000 -227.500000 444.500000 
-241.500000 -227.500000 444.500000 
-234.500000 -227.500000 444.500000 
-213.500000 -171.500000 52.500000 
-206.500000 -171.500000 52.500000 
-199.500000 -171.500000 52.500000 
-220.500000 -164.500000 52.500000 
-213.500000 -164.500000 52.500000 
-220.500000 -157.500000 52.500000 
-213.500000 -157.500000 52.500000 
-206.500000 -164.500000 52.500000 
-199.500000 -164.500000 52.500000 
-206.500000 -157.500000 52.500000 
-199.500000 -157.500000 52.500000 
-220.500000 -150.500000 52.500000 
-213.500000 -150.500000 52.500000 
-220.500000 -143.500000 52.500000 
-213.500000 -143.500000 52.500000 
-206.500000 -150.500000 52.500000 
-199.500000 -150.500000 52.500000 
-206.500000 -143.500000 52.500000 
-199.500000 -143.500000 52.500000 
-192.500000 -164.500000 52.500000 
-192.500000 -157.500000 52.500000 
-192.500000 -150.500000 52.500000 
-185.500000 -150.500000 52.500000 
-192.500000 -143.500000 52.500000 
-185.500000 -143.500000 52.500000 
-220.500000 -136.500000 52.500000 
-213.500000 -136.500000 52.500000 
-220.500000 -129.500000 52.500000 
-213.500000 -129.500000 52.500000 
-206.500000 -129.500000 45.500000 
-206.500000 -136.500000 52.500000 
-199.500000 -129.500000 45.500000 
-199.500000 -136.500000 52.500000 
-206.500000 -129.500000 52.500000 
-199.500000 -129.500000 52.500000 
-220.500000 -122.500000 52.500000 
-213.500000 -122.500000 52.500000 
-220.500000 -115.500000 52.500000 
-213.500000 -115.500000 52.500000 
-206.500000 -122.500000 45.500000 
-199.500000 -122.500000 45.500000 
-206.500000 -122.500000 52.500000 
-199.500000 -115.500000 45.500000 
-199.500000 -122.500000 52.500000 
-206.500000 -115.500000 52.500000 
-199.500000 -115.500000 52.500000 
-185.500000 -115.500000 38.500000 
-192.500000 -136.500000 45.500000 
-185.500000 -136.500000 45.500000 
-192.500000 -129.500000 45.500000 
-192.500000 -136.500000 52.500000 
-185.500000 -129.500000 45.500000 
-185.500000 -136.500000 52.500000 
-192.500000 -129.500000 52.500000 
-185.500000 -129.500000 52.500000 
-171.500000 -122.500000 38.500000 
-178.500000 -115.500000 38.500000 
-171.500000 -115.500000 38.500000 
-178.500000 -136.500000 45.500000 
-171.500000 -136.500000 45.500000 
-178.500000 -129.500000 45.500000 
-178.500000 -136.500000 52.500000 
-171.500000 -129.500000 45.500000 
-178.500000 -129.500000 52.500000 
-192.500000 -122.500000 45.500000 
-185.500000 -122.500000 45.500000 
-192.500000 -115.500000 45.500000 
-192.500000 -122.500000 52.500000 
-185.500000 -115.500000 45.500000 
-185.500000 -122.500000 52.500000 
-192.500000 -115.500000 52.500000 
-185.500000 -115.500000 52.500000 
-178.500000 -122.500000 45.500000 
-171.500000 -122.500000 45.500000 
-178.500000 -115.500000 45.500000 
-178.500000 -122.500000 52.500000 
-171.500000 -115.500000 45.500000 
-171.500000 -122.500000 52.500000 
-178.500000 -115.500000 52.500000 
-171.500000 -115.500000 52.500000 
-220.500000 -185.500000 59.500000 
-220.500000 -178.500000 59.500000 
-213.500000 -178.500000 59.500000 
-220.500000 -171.500000 59.500000 
-213.500000 -171.500000 59.500000 
-206.500000 -178.500000 59.500000 
-206.500000 -171.500000 59.500000 
-164.500000 -115.500000 31.500000 
-164.500000 -122.500000 38.500000 
-157.500000 -115.500000 31.500000 
-157.500000 -122.500000 38.500000 
-164.500000 -115.500000 38.500000 
-157.500000 -115.500000 38.500000 
-164.500000 -136.500000 45.500000 
-157.500000 -136.500000 45.500000 
-164.500000 -129.500000 45.500000 
-157.500000 -129.500000 45.500000 
-150.500000 -115.500000 31.500000 
-150.500000 -122.500000 38.500000 
-143.500000 -115.500000 31.500000 
-143.500000 -122.500000 38.500000 
-150.500000 -115.500000 38.500000 
-143.500000 -115.500000 38.500000 
-150.500000 -129.500000 45.500000 
-164.500000 -122.500000 45.500000 
-157.500000 -122.500000 45.500000 
-164.500000 -115.500000 45.500000 
-157.500000 -115.500000 45.500000 
-150.500000 -122.500000 45.500000 
-150.500000 -115.500000 45.500000 
-143.500000 -115.500000 45.500000 
-136.500000 -115.500000 31.500000 
-129.500000 -115.500000 31.500000 
-136.500000 -115.500000 38.500000 
-122.500000 -115.500000 31.500000 
-220.500000 -164.500000 59.500000 
-213.500000 -164.500000 59.500000 
-220.500000 -157.500000 59.500000 
-213.500000 -157.500000 59.500000 
-206.500000 -164.500000 59.500000 
-199.500000 -164.500000 59.500000 
-206.500000 -157.500000 59.500000 
-199.500000 -157.500000 59.500000 
-220.500000 -150.500000 59.500000 
-213.500000 -150.500000 59.500000 
-220.500000 -143.500000 59.500000 
-213.500000 -143.500000 59.500000 
-206.500000 -150.500000 59.500000 
-199.500000 -150.500000 59.500000 
-206.500000 -143.500000 59.500000 
-199.500000 -143.500000 59.500000 
-192.500000 -150.500000 59.500000 
-192.500000 -143.500000 59.500000 
-185.500000 -143.500000 59.500000 
-220.500000 -136.500000 59.500000 
-213.500000 -136.500000 59.500000 
-220.500000 -129.500000 59.500000 
-213.500000 -129.500000 59.500000 
-206.500000 -136.500000 59.500000 
-199.500000 -136.500000 59.500000 
-206.500000 -129.500000 59.500000 
-199.500000 -129.500000 59.500000 
-220.500000 -122.500000 59.500000 
-213.500000 -122.500000 59.500000 
-220.500000 -115.500000 59.500000 
-213.500000 -115.500000 59.500000 
-206.500000 -122.500000 59.500000 
-199.500000 -122.500000 59.500000 
-206.500000 -115.500000 59.500000 
-199.500000 -115.500000 59.500000 
-192.500000 -136.500000 59.500000 
-185.500000 -136.500000 59.500000 
-192.500000 -129.500000 59.500000 
-185.500000 -129.500000 59.500000 
-192.500000 -122.500000 59.500000 
-185.500000 -122.500000 59.500000 
-192.500000 -115.500000 59.500000 
-185.500000 -115.500000 59.500000 
-213.500000 -108.500000 52.500000 
-213.500000 -101.500000 52.500000 
-199.500000 -108.500000 45.500000 
-206.500000 -108.500000 52.500000 
-199.500000 -108.500000 52.500000 
-206.500000 -101.500000 52.500000 
-199.500000 -101.500000 52.500000 
-199.500000 -94.500000 52.500000 
-185.500000 -108.500000 38.500000 
-171.500000 -108.500000 31.500000 
-178.500000 -108.500000 38.500000 
-171.500000 -101.500000 31.500000 
-171.500000 -108.500000 38.500000 
-178.500000 -101.500000 38.500000 
-171.500000 -101.500000 38.500000 
-192.500000 -108.500000 45.500000 
-185.500000 -108.500000 45.500000 
-192.500000 -101.500000 45.500000 
-192.500000 -108.500000 52.500000 
-185.500000 -101.500000 45.500000 
-185.500000 -108.500000 52.500000 
-192.500000 -101.500000 52.500000 
-185.500000 -101.500000 52.500000 
-171.500000 -94.500000 31.500000 
-178.500000 -94.500000 38.500000 
-171.500000 -94.500000 38.500000 
-171.500000 -87.500000 38.500000 
-178.500000 -108.500000 45.500000 
-171.500000 -108.500000 45.500000 
-178.500000 -101.500000 45.500000 
-178.500000 -108.500000 52.500000 
-171.500000 -101.500000 45.500000 
-171.500000 -108.500000 52.500000 
-178.500000 -101.500000 52.500000 
-171.500000 -101.500000 52.500000 
-192.500000 -94.500000 45.500000 
-185.500000 -94.500000 45.500000 
-192.500000 -94.500000 52.500000 
-185.500000 -87.500000 45.500000 
-185.500000 -94.500000 52.500000 
-185.500000 -87.500000 52.500000 
-178.500000 -94.500000 45.500000 
-171.500000 -94.500000 45.500000 
-178.500000 -87.500000 45.500000 
-178.500000 -94.500000 52.500000 
-171.500000 -87.500000 45.500000 
-171.500000 -94.500000 52.500000 
-178.500000 -87.500000 52.500000 
-171.500000 -87.500000 52.500000 
-171.500000 -80.500000 38.500000 
-171.500000 -80.500000 45.500000 
-157.500000 -101.500000 24.500000 
-143.500000 -108.500000 24.500000 
-150.500000 -101.500000 24.500000 
-143.500000 -101.500000 24.500000 
-157.500000 -94.500000 24.500000 
-157.500000 -87.500000 24.500000 
-143.500000 -94.500000 17.500000 
-150.500000 -94.500000 24.500000 
-143.500000 -87.500000 17.500000 
-143.500000 -94.500000 24.500000 
-150.500000 -87.500000 24.500000 
-143.500000 -87.500000 24.500000 
-136.500000 -87.500000 10.500000 
-129.500000 -87.500000 10.500000 
-136.500000 -108.500000 24.500000 
-129.500000 -108.500000 24.500000 
-136.500000 -101.500000 24.500000 
-129.500000 -101.500000 24.500000 
-122.500000 -94.500000 10.500000 
-115.500000 -87.500000 3.500000 
-115.500000 -94.500000 10.500000 
-122.500000 -87.500000 10.500000 
-115.500000 -87.500000 10.500000 
-122.500000 -108.500000 24.500000 
-115.500000 -108.500000 24.500000 
-122.500000 -101.500000 24.500000 
-115.500000 -101.500000 24.500000 
-136.500000 -94.500000 17.500000 
-129.500000 -94.500000 17.500000 
-136.500000 -87.500000 17.500000 
-136.500000 -94.500000 24.500000 
-129.500000 -87.500000 17.500000 
-129.500000 -94.500000 24.500000 
-136.500000 -87.500000 24.500000 
-129.500000 -87.500000 24.500000 
-122.500000 -94.500000 17.500000 
-115.500000 -94.500000 17.500000 
-122.500000 -87.500000 17.500000 
-122.500000 -94.500000 24.500000 
-115.500000 -87.500000 17.500000 
-115.500000 -94.500000 24.500000 
-122.500000 -87.500000 24.500000 
-115.500000 -87.500000 24.500000 
-157.500000 -80.500000 24.500000 
-157.500000 -73.500000 24.500000 
-143.500000 -80.500000 17.500000 
-150.500000 -80.500000 24.500000 
-143.500000 -73.500000 17.500000 
-143.500000 -80.500000 24.500000 
-150.500000 -73.500000 24.500000 
-143.500000 -73.500000 24.500000 
-143.500000 -66.500000 17.500000 
-143.500000 -66.500000 24.500000 
-164.500000 -108.500000 31.500000 
-157.500000 -108.500000 31.500000 
-164.500000 -101.500000 31.500000 
-164.500000 -108.500000 38.500000 
-157.500000 -101.500000 31.500000 
-157.500000 -108.500000 38.500000 
-164.500000 -101.500000 38.500000 
-157.500000 -101.500000 38.500000 
-150.500000 -108.500000 31.500000 
-143.500000 -108.500000 31.500000 
-150.500000 -101.500000 31.500000 
-150.500000 -108.500000 38.500000 
-143.500000 -101.500000 31.500000 
-143.500000 -108.500000 38.500000 
-150.500000 -101.500000 38.500000 
-143.500000 -101.500000 38.500000 
-164.500000 -94.500000 31.500000 
-157.500000 -94.500000 31.500000 
-164.500000 -87.500000 31.500000 
-164.500000 -94.500000 38.500000 
-157.500000 -87.500000 31.500000 
-157.500000 -94.500000 38.500000 
-164.500000 -87.500000 38.500000 
-157.500000 -87.500000 38.500000 
-164.500000 -108.500000 45.500000 
-157.500000 -108.500000 45.500000 
-164.500000 -101.500000 45.500000 
-157.500000 -101.500000 45.500000 
-150.500000 -94.500000 31.500000 
-143.500000 -94.500000 31.500000 
-150.500000 -87.500000 31.500000 
-150.500000 -94.500000 38.500000 
-143.500000 -87.500000 31.500000 
-143.500000 -94.500000 38.500000 
-150.500000 -87.500000 38.500000 
-150.500000 -108.500000 45.500000 
-150.500000 -101.500000 45.500000 
-164.500000 -94.500000 45.500000 
-157.500000 -94.500000 45.500000 
-164.500000 -87.500000 45.500000 
-157.500000 -87.500000 45.500000 
-136.500000 -80.500000 10.500000 
-129.500000 -80.500000 10.500000 
-136.500000 -73.500000 10.500000 
-129.500000 -73.500000 10.500000 
-122.500000 -80.500000 3.500000 
-115.500000 -80.500000 3.500000 
-122.500000 -73.500000 3.500000 
-122.500000 -80.500000 10.500000 
-115.500000 -73.500000 3.500000 
-115.500000 -80.500000 10.500000 
-122.500000 -73.500000 10.500000 
-115.500000 -73.500000 10.500000 
-136.500000 -66.500000 10.500000 
-129.500000 -66.500000 10.500000 
-129.500000 -59.500000 10.500000 
-136.500000 -80.500000 17.500000 
-129.500000 -80.500000 17.500000 
-136.500000 -73.500000 17.500000 
-136.500000 -80.500000 24.500000 
-129.500000 -73.500000 17.500000 
-129.500000 -80.500000 24.500000 
-136.500000 -73.500000 24.500000 
-129.500000 -73.500000 24.500000 
-122.500000 -66.500000 3.500000 
-115.500000 -66.500000 3.500000 
-122.500000 -59.500000 3.500000 
-122.500000 -66.500000 10.500000 
-115.500000 -59.500000 3.500000 
-115.500000 -66.500000 10.500000 
-122.500000 -59.500000 10.500000 
-115.500000 -59.500000 10.500000 
-122.500000 -80.500000 17.500000 
-115.500000 -80.500000 17.500000 
-122.500000 -73.500000 17.500000 
-122.500000 -80.500000 24.500000 
-115.500000 -73.500000 17.500000 
-115.500000 -80.500000 24.500000 
-136.500000 -66.500000 17.500000 
-129.500000 -66.500000 17.500000 
-122.500000 -66.500000 17.500000 
-136.500000 -108.500000 31.500000 
-129.500000 -108.500000 31.500000 
-136.500000 -101.500000 31.500000 
-136.500000 -108.500000 38.500000 
-129.500000 -101.500000 31.500000 
-122.500000 -108.500000 31.500000 
-122.500000 -101.500000 31.500000 
-115.500000 -101.500000 31.500000 
-136.500000 -94.500000 31.500000 
-129.500000 -94.500000 31.500000 
-136.500000 -87.500000 31.500000 
-129.500000 -87.500000 31.500000 
-122.500000 -94.500000 31.500000 
-122.500000 -87.500000 31.500000 
-164.500000 -80.500000 31.500000 
-157.500000 -80.500000 31.500000 
-164.500000 -80.500000 38.500000 
-157.500000 -73.500000 31.500000 
-157.500000 -80.500000 38.500000 
-157.500000 -73.500000 38.500000 
-150.500000 -80.500000 31.500000 
-143.500000 -80.500000 31.500000 
-150.500000 -73.500000 31.500000 
-143.500000 -73.500000 31.500000 
-164.500000 -80.500000 45.500000 
-136.500000 -80.500000 31.500000 
-129.500000 -80.500000 31.500000 
-220.500000 -108.500000 59.500000 
-213.500000 -108.500000 59.500000 
-213.500000 -101.500000 59.500000 
-206.500000 -108.500000 59.500000 
-199.500000 -108.500000 59.500000 
-206.500000 -101.500000 59.500000 
-199.500000 -101.500000 59.500000 
-199.500000 -94.500000 59.500000 
-192.500000 -108.500000 59.500000 
-185.500000 -108.500000 59.500000 
-192.500000 -101.500000 59.500000 
-185.500000 -101.500000 59.500000 
-192.500000 -94.500000 59.500000 
-185.500000 -94.500000 59.500000 
-115.500000 -52.500000 3.500000 
-108.500000 -87.500000 3.500000 
-108.500000 -94.500000 10.500000 
-101.500000 -87.500000 3.500000 
-101.500000 -94.500000 10.500000 
-108.500000 -87.500000 10.500000 
-101.500000 -87.500000 10.500000 
-108.500000 -101.500000 24.500000 
-94.500000 -94.500000 3.500000 
-94.500000 -87.500000 3.500000 
-94.500000 -94.500000 10.500000 
-87.500000 -87.500000 3.500000 
-94.500000 -87.500000 10.500000 
-108.500000 -94.500000 17.500000 
-101.500000 -94.500000 17.500000 
-108.500000 -87.500000 17.500000 
-108.500000 -94.500000 24.500000 
-101.500000 -87.500000 17.500000 
-108.500000 -87.500000 24.500000 
-108.500000 -80.500000 3.500000 
-101.500000 -80.500000 3.500000 
-108.500000 -73.500000 3.500000 
-108.500000 -80.500000 10.500000 
-101.500000 -73.500000 3.500000 
-101.500000 -80.500000 10.500000 
-108.500000 -73.500000 10.500000 
-101.500000 -73.500000 10.500000 
-94.500000 -80.500000 3.500000 
-87.500000 -80.500000 3.500000 
-94.500000 -73.500000 3.500000 
-87.500000 -73.500000 3.500000 
-108.500000 -66.500000 3.500000 
-101.500000 -66.500000 3.500000 
-108.500000 -59.500000 3.500000 
-108.500000 -66.500000 10.500000 
-101.500000 -59.500000 3.500000 
-108.500000 -59.500000 10.500000 
-108.500000 -80.500000 17.500000 
-101.500000 -80.500000 17.500000 
-94.500000 -66.500000 3.500000 
-87.500000 -66.500000 3.500000 
-94.500000 -59.500000 3.500000 
-108.500000 -52.500000 3.500000 
-101.500000 -52.500000 3.500000 
-94.500000 -52.500000 3.500000 
-3.500000 -38.500000 164.500000 
-3.500000 -31.500000 164.500000 
-3.500000 -24.500000 164.500000 
-3.500000 -17.500000 164.500000 
-3.500000 -10.500000 164.500000 
-3.500000 -59.500000 206.500000 
-10.500000 -59.500000 213.500000 
-3.500000 -59.500000 213.500000 
-10.500000 -59.500000 220.500000 
-3.500000 -59.500000 220.500000 
-3.500000 -38.500000 171.500000 
-3.500000 -31.500000 171.500000 
-3.500000 -38.500000 178.500000 
-10.500000 -31.500000 178.500000 
-3.500000 -31.500000 178.500000 
-17.500000 -31.500000 192.500000 
-10.500000 -38.500000 185.500000 
-3.500000 -38.500000 185.500000 
-10.500000 -31.500000 185.500000 
-10.500000 -38.500000 192.500000 
-3.500000 -31.500000 185.500000 
-3.500000 -38.500000 192.500000 
-10.500000 -31.500000 192.500000 
-3.500000 -31.500000 192.500000 
-10.500000 -24.500000 171.500000 
-3.500000 -24.500000 171.500000 
-10.500000 -24.500000 178.500000 
-3.500000 -17.500000 171.500000 
-3.500000 -24.500000 178.500000 
-10.500000 -17.500000 178.500000 
-3.500000 -17.500000 178.500000 
-17.500000 -24.500000 192.500000 
-17.500000 -17.500000 192.500000 
-10.500000 -10.500000 178.500000 
-3.500000 -10.500000 178.500000 
-3.500000 -3.500000 178.500000 
-10.500000 -24.500000 185.500000 
-3.500000 -24.500000 185.500000 
-10.500000 -17.500000 185.500000 
-10.500000 -24.500000 192.500000 
-3.500000 -17.500000 185.500000 
-3.500000 -24.500000 192.500000 
-10.500000 -17.500000 192.500000 
-3.500000 -17.500000 192.500000 
-17.500000 -10.500000 192.500000 
-17.500000 -3.500000 192.500000 
-10.500000 -10.500000 185.500000 
-3.500000 -10.500000 185.500000 
-10.500000 -3.500000 185.500000 
-10.500000 -10.500000 192.500000 
-3.500000 -3.500000 185.500000 
-3.500000 -10.500000 192.500000 
-10.500000 -3.500000 192.500000 
-3.500000 -3.500000 192.500000 
-17.500000 -45.500000 206.500000 
-10.500000 -52.500000 206.500000 
-3.500000 -45.500000 199.500000 
-3.500000 -52.500000 206.500000 
-10.500000 -45.500000 206.500000 
-3.500000 -45.500000 206.500000 
-17.500000 -38.500000 199.500000 
-17.500000 -31.500000 199.500000 
-17.500000 -38.500000 206.500000 
-17.500000 -31.500000 206.500000 
-17.500000 -52.500000 213.500000 
-17.500000 -45.500000 213.500000 
-17.500000 -52.500000 220.500000 
-24.500000 -45.500000 220.500000 
-17.500000 -45.500000 220.500000 
-10.500000 -38.500000 199.500000 
-3.500000 -38.500000 199.500000 
-10.500000 -31.500000 199.500000 
-10.500000 -38.500000 206.500000 
-3.500000 -31.500000 199.500000 
-3.500000 -38.500000 206.500000 
-10.500000 -31.500000 206.500000 
-3.500000 -31.500000 206.500000 
-10.500000 -52.500000 213.500000 
-3.500000 -52.500000 213.500000 
-10.500000 -45.500000 213.500000 
-10.500000 -52.500000 220.500000 
-3.500000 -45.500000 213.500000 
-3.500000 -52.500000 220.500000 
-10.500000 -45.500000 220.500000 
-3.500000 -45.500000 220.500000 
-24.500000 -38.500000 213.500000 
-17.500000 -38.500000 213.500000 
-24.500000 -31.500000 213.500000 
-24.500000 -38.500000 220.500000 
-17.500000 -31.500000 213.500000 
-17.500000 -38.500000 220.500000 
-24.500000 -31.500000 220.500000 
-17.500000 -31.500000 220.500000 
-10.500000 -38.500000 213.500000 
-3.500000 -38.500000 213.500000 
-10.500000 -31.500000 213.500000 
-10.500000 -38.500000 220.500000 
-3.500000 -31.500000 213.500000 
-3.500000 -38.500000 220.500000 
-10.500000 -31.500000 220.500000 
-3.500000 -31.500000 220.500000 
-17.500000 -24.500000 199.500000 
-17.500000 -17.500000 199.500000 
-17.500000 -24.500000 206.500000 
-17.500000 -17.500000 206.500000 
-10.500000 -24.500000 199.500000 
-3.500000 -24.500000 199.500000 
-10.500000 -17.500000 199.500000 
-10.500000 -24.500000 206.500000 
-3.500000 -17.500000 199.500000 
-3.500000 -24.500000 206.500000 
-10.500000 -17.500000 206.500000 
-3.500000 -17.500000 206.500000 
-17.500000 -10.500000 199.500000 
-17.500000 -3.500000 199.500000 
-17.500000 -10.500000 206.500000 
-17.500000 -3.500000 206.500000 
-24.500000 -24.500000 213.500000 
-17.500000 -24.500000 213.500000 
-24.500000 -17.500000 213.500000 
-24.500000 -24.500000 220.500000 
-17.500000 -17.500000 213.500000 
-17.500000 -24.500000 220.500000 
-24.500000 -17.500000 220.500000 
-17.500000 -17.500000 220.500000 
-10.500000 -10.500000 199.500000 
-3.500000 -10.500000 199.500000 
-10.500000 -3.500000 199.500000 
-10.500000 -10.500000 206.500000 
-3.500000 -3.500000 199.500000 
-3.500000 -10.500000 206.500000 
-10.500000 -3.500000 206.500000 
-3.500000 -3.500000 206.500000 
-10.500000 -24.500000 213.500000 
-3.500000 -24.500000 213.500000 
-10.500000 -17.500000 213.500000 
-10.500000 -24.500000 220.500000 
-3.500000 -17.500000 213.500000 
-3.500000 -24.500000 220.500000 
-10.500000 -17.500000 220.500000 
-3.500000 -17.500000 220.500000 
-24.500000 -10.500000 213.500000 
-17.500000 -10.500000 213.500000 
-17.500000 -3.500000 213.500000 
-17.500000 -10.500000 220.500000 
-17.500000 -3.500000 220.500000 
-10.500000 -10.500000 213.500000 
-3.500000 -10.500000 213.500000 
-10.500000 -3.500000 213.500000 
-10.500000 -10.500000 220.500000 
-3.500000 -3.500000 213.500000 
-3.500000 -10.500000 220.500000 
-10.500000 -3.500000 220.500000 
-3.500000 -3.500000 220.500000 
-437.500000 -220.500000 437.500000 
-444.500000 -220.500000 444.500000 
-437.500000 -220.500000 444.500000 
-444.500000 -213.500000 444.500000 
-437.500000 -213.500000 444.500000 
-430.500000 -220.500000 437.500000 
-423.500000 -220.500000 437.500000 
-430.500000 -220.500000 444.500000 
-423.500000 -213.500000 437.500000 
-423.500000 -220.500000 444.500000 
-430.500000 -213.500000 444.500000 
-423.500000 -213.500000 444.500000 
-437.500000 -206.500000 444.500000 
-430.500000 -206.500000 444.500000 
-423.500000 -206.500000 444.500000 
-423.500000 -199.500000 444.500000 
-416.500000 -220.500000 430.500000 
-409.500000 -220.500000 430.500000 
-409.500000 -213.500000 430.500000 
-402.500000 -220.500000 430.500000 
-395.500000 -220.500000 430.500000 
-402.500000 -213.500000 430.500000 
-395.500000 -213.500000 430.500000 
-409.500000 -206.500000 430.500000 
-416.500000 -220.500000 437.500000 
-409.500000 -220.500000 437.500000 
-416.500000 -213.500000 437.500000 
-416.500000 -220.500000 444.500000 
-409.500000 -213.500000 437.500000 
-409.500000 -220.500000 444.500000 
-416.500000 -213.500000 444.500000 
-409.500000 -213.500000 444.500000 
-402.500000 -206.500000 430.500000 
-395.500000 -206.500000 430.500000 
-395.500000 -199.500000 430.500000 
-402.500000 -220.500000 437.500000 
-395.500000 -220.500000 437.500000 
-402.500000 -213.500000 437.500000 
-402.500000 -220.500000 444.500000 
-395.500000 -213.500000 437.500000 
-395.500000 -220.500000 444.500000 
-402.500000 -213.500000 444.500000 
-395.500000 -213.500000 444.500000 
-416.500000 -206.500000 437.500000 
-409.500000 -206.500000 437.500000 
-416.500000 -206.500000 444.500000 
-409.500000 -199.500000 437.500000 
-409.500000 -206.500000 444.500000 
-416.500000 -199.500000 444.500000 
-409.500000 -199.500000 444.500000 
-402.500000 -206.500000 437.500000 
-395.500000 -206.500000 437.500000 
-402.500000 -199.500000 437.500000 
-402.500000 -206.500000 444.500000 
-395.500000 -199.500000 437.500000 
-395.500000 -206.500000 444.500000 
-402.500000 -199.500000 444.500000 
-395.500000 -199.500000 444.500000 
-409.500000 -192.500000 444.500000 
-395.500000 -192.500000 437.500000 
-402.500000 -192.500000 444.500000 
-395.500000 -192.500000 444.500000 
-402.500000 -185.500000 444.500000 
-395.500000 -185.500000 444.500000 
-388.500000 -220.500000 430.500000 
-381.500000 -220.500000 430.500000 
-388.500000 -213.500000 430.500000 
-381.500000 -213.500000 430.500000 
-374.500000 -213.500000 430.500000 
-388.500000 -206.500000 430.500000 
-381.500000 -206.500000 430.500000 
-388.500000 -199.500000 430.500000 
-381.500000 -199.500000 430.500000 
-388.500000 -220.500000 437.500000 
-381.500000 -220.500000 437.500000 
-388.500000 -213.500000 437.500000 
-388.500000 -220.500000 444.500000 
-381.500000 -213.500000 437.500000 
-381.500000 -220.500000 444.500000 
-388.500000 -213.500000 444.500000 
-381.500000 -213.500000 444.500000 
-374.500000 -206.500000 430.500000 
-374.500000 -199.500000 430.500000 
-367.500000 -199.500000 430.500000 
-374.500000 -220.500000 437.500000 
-367.500000 -220.500000 437.500000 
-374.500000 -213.500000 437.500000 
-374.500000 -220.500000 444.500000 
-367.500000 -213.500000 437.500000 
-367.500000 -220.500000 444.500000 
-374.500000 -213.500000 444.500000 
-367.500000 -213.500000 444.500000 
-388.500000 -206.500000 437.500000 
-381.500000 -206.500000 437.500000 
-388.500000 -199.500000 437.500000 
-388.500000 -206.500000 444.500000 
-381.500000 -199.500000 437.500000 
-381.500000 -206.500000 444.500000 
-388.500000 -199.500000 444.500000 
-381.500000 -199.500000 444.500000 
-374.500000 -206.500000 437.500000 
-367.500000 -206.500000 437.500000 
-374.500000 -199.500000 437.500000 
-374.500000 -206.500000 444.500000 
-367.500000 -199.500000 437.500000 
-367.500000 -206.500000 444.500000 
-374.500000 -199.500000 444.500000 
-367.500000 -199.500000 444.500000 
-360.500000 -213.500000 444.500000 
-339.500000 -220.500000 444.500000 
-360.500000 -199.500000 437.500000 
-360.500000 -206.500000 444.500000 
-360.500000 -199.500000 444.500000 
-353.500000 -199.500000 444.500000 
-381.500000 -192.500000 430.500000 
-388.500000 -192.500000 437.500000 
-381.500000 -192.500000 437.500000 
-388.500000 -185.500000 437.500000 
-388.500000 -192.500000 444.500000 
-381.500000 -185.500000 437.500000 
-381.500000 -192.500000 444.500000 
-388.500000 -185.500000 444.500000 
-381.500000 -185.500000 444.500000 
-374.500000 -192.500000 437.500000 
-367.500000 -192.500000 437.500000 
-374.500000 -185.500000 437.500000 
-374.500000 -192.500000 444.500000 
-367.500000 -185.500000 437.500000 
-367.500000 -192.500000 444.500000 
-374.500000 -185.500000 444.500000 
-367.500000 -185.500000 444.500000 
-381.500000 -178.500000 437.500000 
-388.500000 -178.500000 444.500000 
-381.500000 -178.500000 444.500000 
-381.500000 -171.500000 444.500000 
-374.500000 -178.500000 437.500000 
-367.500000 -178.500000 437.500000 
-374.500000 -171.500000 437.500000 
-374.500000 -178.500000 444.500000 
-367.500000 -178.500000 444.500000 
-374.500000 -171.500000 444.500000 
-367.500000 -171.500000 444.500000 
-360.500000 -192.500000 437.500000 
-360.500000 -185.500000 437.500000 
-360.500000 -192.500000 444.500000 
-353.500000 -185.500000 437.500000 
-353.500000 -192.500000 444.500000 
-360.500000 -185.500000 444.500000 
-353.500000 -185.500000 444.500000 
-360.500000 -178.500000 437.500000 
-353.500000 -178.500000 437.500000 
-360.500000 -178.500000 444.500000 
-353.500000 -178.500000 444.500000 
-360.500000 -171.500000 444.500000 
-353.500000 -171.500000 444.500000 
-346.500000 -178.500000 444.500000 
-346.500000 -171.500000 444.500000 
-367.500000 -164.500000 444.500000 
-360.500000 -164.500000 444.500000 
-353.500000 -164.500000 444.500000 
-346.500000 -164.500000 444.500000 
-311.500000 -220.500000 437.500000 
-311.500000 -220.500000 444.500000 
-311.500000 -213.500000 444.500000 
-325.500000 -206.500000 444.500000 
-325.500000 -199.500000 444.500000 
-297.500000 -213.500000 430.500000 
-290.500000 -213.500000 430.500000 
-283.500000 -213.500000 430.500000 
-304.500000 -220.500000 437.500000 
-297.500000 -220.500000 437.500000 
-304.500000 -213.500000 437.500000 
-304.500000 -220.500000 444.500000 
-297.500000 -213.500000 437.500000 
-297.500000 -220.500000 444.500000 
-304.500000 -213.500000 444.500000 
-297.500000 -213.500000 444.500000 
-290.500000 -220.500000 437.500000 
-283.500000 -220.500000 437.500000 
-290.500000 -213.500000 437.500000 
-290.500000 -220.500000 444.500000 
-283.500000 -213.500000 437.500000 
-283.500000 -220.500000 444.500000 
-290.500000 -213.500000 444.500000 
-283.500000 -213.500000 444.500000 
-304.500000 -206.500000 437.500000 
-297.500000 -206.500000 437.500000 
-304.500000 -206.500000 444.500000 
-297.500000 -199.500000 437.500000 
-297.500000 -206.500000 444.500000 
-304.500000 -199.500000 444.500000 
-297.500000 -199.500000 444.500000 
-290.500000 -206.500000 437.500000 
-283.500000 -206.500000 437.500000 
-290.500000 -199.500000 437.500000 
-290.500000 -206.500000 444.500000 
-283.500000 -199.500000 437.500000 
-283.500000 -206.500000 444.500000 
-290.500000 -199.500000 444.500000 
-283.500000 -199.500000 444.500000 
-318.500000 -192.500000 437.500000 
-318.500000 -192.500000 444.500000 
-318.500000 -185.500000 444.500000 
-311.500000 -185.500000 444.500000 
-311.500000 -178.500000 444.500000 
-297.500000 -192.500000 444.500000 
-297.500000 -185.500000 444.500000 
-290.500000 -192.500000 444.500000 
-283.500000 -192.500000 444.500000 
-290.500000 -185.500000 444.500000 
-283.500000 -185.500000 444.500000 
-304.500000 -178.500000 444.500000 
-276.500000 -220.500000 437.500000 
-269.500000 -220.500000 437.500000 
-276.500000 -213.500000 437.500000 
-276.500000 -220.500000 444.500000 
-269.500000 -213.500000 437.500000 
-269.500000 -220.500000 444.500000 
-276.500000 -213.500000 444.500000 
-269.500000 -213.500000 444.500000 
-262.500000 -220.500000 437.500000 
-255.500000 -220.500000 437.500000 
-262.500000 -213.500000 437.500000 
-262.500000 -220.500000 444.500000 
-255.500000 -213.500000 437.500000 
-255.500000 -220.500000 444.500000 
-262.500000 -213.500000 444.500000 
-255.500000 -213.500000 444.500000 
-276.500000 -206.500000 437.500000 
-269.500000 -206.500000 437.500000 
-276.500000 -206.500000 444.500000 
-269.500000 -206.500000 444.500000 
-276.500000 -199.500000 444.500000 
-269.500000 -199.500000 444.500000 
-262.500000 -206.500000 437.500000 
-262.500000 -206.500000 444.500000 
-255.500000 -206.500000 444.500000 
-262.500000 -199.500000 444.500000 
-255.500000 -199.500000 444.500000 
-248.500000 -220.500000 444.500000 
-241.500000 -220.500000 444.500000 
-248.500000 -213.500000 444.500000 
-241.500000 -213.500000 444.500000 
-234.500000 -220.500000 444.500000 
-234.500000 -213.500000 444.500000 
-227.500000 -213.500000 444.500000 
-248.500000 -206.500000 444.500000 
-241.500000 -206.500000 444.500000 
-248.500000 -199.500000 444.500000 
-241.500000 -199.500000 444.500000 
-234.500000 -206.500000 444.500000 
-227.500000 -199.500000 444.500000 
-276.500000 -192.500000 444.500000 
-269.500000 -192.500000 444.500000 
-276.500000 -185.500000 444.500000 
-262.500000 -192.500000 444.500000 
-255.500000 -192.500000 444.500000 
-255.500000 -185.500000 444.500000 
-269.500000 -171.500000 444.500000 
-262.500000 -178.500000 444.500000 
-255.500000 -178.500000 444.500000 
-262.500000 -171.500000 444.500000 
-255.500000 -171.500000 444.500000 
-248.500000 -185.500000 444.500000 
-241.500000 -185.500000 444.500000 
-234.500000 -192.500000 444.500000 
-227.500000 -192.500000 444.500000 
-234.500000 -185.500000 444.500000 
-227.500000 -185.500000 444.500000 
-248.500000 -178.500000 444.500000 
-241.500000 -178.500000 444.500000 
-248.500000 -171.500000 444.500000 
-241.500000 -171.500000 444.500000 
-234.500000 -178.500000 444.500000 
-227.500000 -171.500000 437.500000 
-227.500000 -178.500000 444.500000 
-234.500000 -171.500000 444.500000 
-227.500000 -171.500000 444.500000 
-283.500000 -157.500000 444.500000 
-290.500000 -150.500000 444.500000 
-283.500000 -129.500000 444.500000 
-276.500000 -164.500000 444.500000 
-269.500000 -164.500000 444.500000 
-276.500000 -157.500000 444.500000 
-269.500000 -157.500000 444.500000 
-262.500000 -164.500000 444.500000 
-255.500000 -164.500000 444.500000 
-262.500000 -157.500000 444.500000 
-255.500000 -157.500000 444.500000 
-269.500000 -150.500000 444.500000 
-276.500000 -143.500000 444.500000 
-269.500000 -143.500000 444.500000 
-262.500000 -150.500000 444.500000 
-255.500000 -150.500000 444.500000 
-262.500000 -143.500000 444.500000 
-255.500000 -143.500000 444.500000 
-227.500000 -122.500000 416.500000 
-234.500000 -115.500000 416.500000 
-227.500000 -115.500000 416.500000 
-248.500000 -164.500000 444.500000 
-241.500000 -157.500000 437.500000 
-241.500000 -164.500000 444.500000 
-248.500000 -157.500000 444.500000 
-241.500000 -157.500000 444.500000 
-227.500000 -150.500000 430.500000 
-234.500000 -143.500000 430.500000 
-227.500000 -143.500000 430.500000 
-234.500000 -164.500000 437.500000 
-227.500000 -164.500000 437.500000 
-234.500000 -157.500000 437.500000 
-234.500000 -164.500000 444.500000 
-227.500000 -157.500000 437.500000 
-227.500000 -164.500000 444.500000 
-234.500000 -157.500000 444.500000 
-227.500000 -157.500000 444.500000 
-248.500000 -150.500000 437.500000 
-241.500000 -150.500000 437.500000 
-248.500000 -143.500000 437.500000 
-248.500000 -150.500000 444.500000 
-241.500000 -143.500000 437.500000 
-241.500000 -150.500000 444.500000 
-248.500000 -143.500000 444.500000 
-241.500000 -143.500000 444.500000 
-234.500000 -150.500000 437.500000 
-227.500000 -150.500000 437.500000 
-234.500000 -143.500000 437.500000 
-234.500000 -150.500000 444.500000 
-227.500000 -143.500000 437.500000 
-227.500000 -150.500000 444.500000 
-234.500000 -143.500000 444.500000 
-227.500000 -143.500000 444.500000 
-276.500000 -136.500000 444.500000 
-269.500000 -136.500000 444.500000 
-276.500000 -129.500000 444.500000 
-269.500000 -129.500000 444.500000 
-262.500000 -136.500000 444.500000 
-255.500000 -136.500000 444.500000 
-262.500000 -129.500000 444.500000 
-255.500000 -129.500000 444.500000 
-276.500000 -122.500000 444.500000 
-269.500000 -122.500000 444.500000 
-276.500000 -115.500000 444.500000 
-269.500000 -115.500000 444.500000 
-262.500000 -122.500000 444.500000 
-255.500000 -122.500000 444.500000 
-262.500000 -115.500000 444.500000 
-255.500000 -115.500000 444.500000 
-241.500000 -136.500000 430.500000 
-241.500000 -129.500000 430.500000 
-227.500000 -136.500000 423.500000 
-234.500000 -136.500000 430.500000 
-227.500000 -129.500000 423.500000 
-227.500000 -136.500000 430.500000 
-234.500000 -129.500000 430.500000 
-227.500000 -129.500000 430.500000 
-241.500000 -122.500000 430.500000 
-241.500000 -115.500000 430.500000 
-248.500000 -136.500000 437.500000 
-241.500000 -136.500000 437.500000 
-248.500000 -129.500000 437.500000 
-248.500000 -136.500000 444.500000 
-241.500000 -129.500000 437.500000 
-241.500000 -136.500000 444.500000 
-248.500000 -129.500000 444.500000 
-241.500000 -129.500000 444.500000 
-234.500000 -122.500000 423.500000 
-227.500000 -122.500000 423.500000 
-234.500000 -115.500000 423.500000 
-234.500000 -122.500000 430.500000 
-227.500000 -115.500000 423.500000 
-227.500000 -122.500000 430.500000 
-234.500000 -115.500000 430.500000 
-227.500000 -115.500000 430.500000 
-234.500000 -136.500000 437.500000 
-227.500000 -136.500000 437.500000 
-234.500000 -129.500000 437.500000 
-234.500000 -136.500000 444.500000 
-227.500000 -129.500000 437.500000 
-227.500000 -136.500000 444.500000 
-234.500000 -129.500000 444.500000 
-227.500000 -129.500000 444.500000 
-248.500000 -122.500000 437.500000 
-241.500000 -122.500000 437.500000 
-248.500000 -115.500000 437.500000 
-248.500000 -122.500000 444.500000 
-241.500000 -115.500000 437.500000 
-241.500000 -122.500000 444.500000 
-248.500000 -115.500000 444.500000 
-241.500000 -115.500000 444.500000 
-234.500000 -122.500000 437.500000 
-227.500000 -122.500000 437.500000 
-234.500000 -115.500000 437.500000 
-234.500000 -122.500000 444.500000 
-227.500000 -115.500000 437.500000 
-227.500000 -122.500000 444.500000 
-234.500000 -115.500000 444.500000 
-234.500000 -108.500000 416.500000 
-227.500000 -108.500000 416.500000 
-227.500000 -101.500000 416.500000 
-241.500000 -108.500000 430.500000 
-234.500000 -108.500000 423.500000 
-227.500000 -108.500000 423.500000 
-234.500000 -108.500000 430.500000 
-227.500000 -108.500000 430.500000 
-248.500000 -108.500000 437.500000 
-241.500000 -108.500000 437.500000 
-94.500000 -115.500000 332.500000 
-87.500000 -115.500000 332.500000 
-178.500000 -150.500000 388.500000 
-171.500000 -150.500000 388.500000 
-178.500000 -143.500000 388.500000 
-171.500000 -143.500000 388.500000 
-178.500000 -136.500000 388.500000 
-171.500000 -136.500000 388.500000 
-171.500000 -129.500000 388.500000 
-178.500000 -122.500000 388.500000 
-171.500000 -122.500000 388.500000 
-178.500000 -115.500000 388.500000 
-171.500000 -115.500000 388.500000 
-199.500000 -171.500000 416.500000 
-220.500000 -199.500000 444.500000 
-192.500000 -171.500000 409.500000 
-213.500000 -171.500000 430.500000 
-220.500000 -192.500000 444.500000 
-213.500000 -192.500000 444.500000 
-220.500000 -185.500000 444.500000 
-213.500000 -185.500000 444.500000 
-199.500000 -178.500000 423.500000 
-206.500000 -171.500000 423.500000 
-206.500000 -178.500000 430.500000 
-199.500000 -171.500000 423.500000 
-206.500000 -171.500000 430.500000 
-199.500000 -171.500000 430.500000 
-206.500000 -185.500000 437.500000 
-220.500000 -178.500000 437.500000 
-213.500000 -178.500000 437.500000 
-220.500000 -171.500000 437.500000 
-220.500000 -178.500000 444.500000 
-213.500000 -171.500000 437.500000 
-213.500000 -178.500000 444.500000 
-220.500000 -171.500000 444.500000 
-213.500000 -171.500000 444.500000 
-206.500000 -178.500000 437.500000 
-206.500000 -171.500000 437.500000 
-206.500000 -178.500000 444.500000 
-199.500000 -171.500000 437.500000 
-206.500000 -171.500000 444.500000 
-199.500000 -171.500000 444.500000 
-157.500000 -157.500000 388.500000 
-150.500000 -157.500000 388.500000 
-143.500000 -157.500000 388.500000 
-164.500000 -150.500000 388.500000 
-157.500000 -150.500000 388.500000 
-164.500000 -143.500000 388.500000 
-157.500000 -143.500000 388.500000 
-150.500000 -150.500000 388.500000 
-143.500000 -150.500000 388.500000 
-150.500000 -143.500000 388.500000 
-143.500000 -143.500000 388.500000 
-115.500000 -122.500000 360.500000 
-122.500000 -115.500000 360.500000 
-115.500000 -115.500000 360.500000 
-136.500000 -150.500000 388.500000 
-129.500000 -150.500000 388.500000 
-136.500000 -143.500000 388.500000 
-129.500000 -143.500000 388.500000 
-122.500000 -150.500000 388.500000 
-122.500000 -143.500000 388.500000 
-115.500000 -143.500000 388.500000 
-164.500000 -136.500000 388.500000 
-157.500000 -136.500000 388.500000 
-164.500000 -129.500000 388.500000 
-157.500000 -129.500000 388.500000 
-150.500000 -136.500000 388.500000 
-143.500000 -136.500000 388.500000 
-150.500000 -129.500000 388.500000 
-143.500000 -129.500000 388.500000 
-164.500000 -122.500000 388.500000 
-157.500000 -122.500000 388.500000 
-164.500000 -115.500000 388.500000 
-157.500000 -115.500000 388.500000 
-150.500000 -122.500000 388.500000 
-143.500000 -115.500000 381.500000 
-143.500000 -122.500000 388.500000 
-150.500000 -115.500000 388.500000 
-143.500000 -115.500000 388.500000 
-129.500000 -115.500000 367.500000 
-129.500000 -115.500000 374.500000 
-136.500000 -136.500000 388.500000 
-129.500000 -136.500000 388.500000 
-136.500000 -129.500000 388.500000 
-129.500000 -129.500000 388.500000 
-115.500000 -122.500000 367.500000 
-122.500000 -115.500000 367.500000 
-115.500000 -115.500000 367.500000 
-115.500000 -122.500000 374.500000 
-122.500000 -115.500000 374.500000 
-115.500000 -115.500000 374.500000 
-122.500000 -136.500000 388.500000 
-115.500000 -136.500000 388.500000 
-122.500000 -129.500000 388.500000 
-115.500000 -129.500000 388.500000 
-129.500000 -122.500000 381.500000 
-136.500000 -115.500000 381.500000 
-136.500000 -122.500000 388.500000 
-129.500000 -115.500000 381.500000 
-129.500000 -122.500000 388.500000 
-136.500000 -115.500000 388.500000 
-129.500000 -115.500000 388.500000 
-122.500000 -122.500000 381.500000 
-115.500000 -122.500000 381.500000 
-122.500000 -115.500000 381.500000 
-122.500000 -122.500000 388.500000 
-115.500000 -115.500000 381.500000 
-115.500000 -122.500000 388.500000 
-122.500000 -115.500000 388.500000 
-115.500000 -115.500000 388.500000 
-199.500000 -164.500000 416.500000 
-206.500000 -157.500000 416.500000 
-199.500000 -157.500000 416.500000 
-213.500000 -150.500000 416.500000 
-213.500000 -143.500000 416.500000 
-206.500000 -150.500000 416.500000 
-199.500000 -150.500000 416.500000 
-206.500000 -143.500000 416.500000 
-199.500000 -143.500000 416.500000 
-185.500000 -157.500000 395.500000 
-185.500000 -164.500000 402.500000 
-185.500000 -157.500000 402.500000 
-178.500000 -157.500000 395.500000 
-178.500000 -164.500000 402.500000 
-171.500000 -157.500000 395.500000 
-178.500000 -157.500000 402.500000 
-185.500000 -150.500000 395.500000 
-185.500000 -143.500000 395.500000 
-185.500000 -150.500000 402.500000 
-185.500000 -143.500000 402.500000 
-192.500000 -164.500000 409.500000 
-192.500000 -164.500000 416.500000 
-185.500000 -157.500000 409.500000 
-192.500000 -157.500000 416.500000 
-185.500000 -157.500000 416.500000 
-178.500000 -150.500000 395.500000 
-171.500000 -150.500000 395.500000 
-178.500000 -143.500000 395.500000 
-178.500000 -150.500000 402.500000 
-171.500000 -143.500000 395.500000 
-171.500000 -150.500000 402.500000 
-178.500000 -143.500000 402.500000 
-171.500000 -143.500000 402.500000 
-192.500000 -150.500000 409.500000 
-185.500000 -150.500000 409.500000 
-192.500000 -143.500000 409.500000 
-192.500000 -150.500000 416.500000 
-185.500000 -143.500000 409.500000 
-185.500000 -150.500000 416.500000 
-192.500000 -143.500000 416.500000 
-185.500000 -143.500000 416.500000 
-178.500000 -150.500000 409.500000 
-178.500000 -143.500000 409.500000 
-178.500000 -143.500000 416.500000 
-220.500000 -136.500000 416.500000 
-213.500000 -136.500000 416.500000 
-220.500000 -129.500000 416.500000 
-213.500000 -129.500000 416.500000 
-206.500000 -136.500000 416.500000 
-199.500000 -136.500000 416.500000 
-206.500000 -129.500000 416.500000 
-199.500000 -129.500000 416.500000 
-220.500000 -122.500000 416.500000 
-213.500000 -122.500000 416.500000 
-220.500000 -115.500000 416.500000 
-213.500000 -115.500000 416.500000 
-206.500000 -122.500000 416.500000 
-199.500000 -122.500000 416.500000 
-206.500000 -115.500000 416.500000 
-199.500000 -115.500000 416.500000 
-220.500000 -164.500000 430.500000 
-213.500000 -157.500000 423.500000 
-213.500000 -164.500000 430.500000 
-220.500000 -157.500000 430.500000 
-213.500000 -157.500000 430.500000 
-206.500000 -164.500000 423.500000 
-199.500000 -164.500000 423.500000 
-206.500000 -157.500000 423.500000 
-206.500000 -164.500000 430.500000 
-199.500000 -157.500000 423.500000 
-199.500000 -164.500000 430.500000 
-206.500000 -157.500000 430.500000 
-199.500000 -157.500000 430.500000 
-213.500000 -150.500000 423.500000 
-220.500000 -143.500000 423.500000 
-220.500000 -150.500000 430.500000 
-213.500000 -143.500000 423.500000 
-213.500000 -150.500000 430.500000 
-220.500000 -143.500000 430.500000 
-213.500000 -143.500000 430.500000 
-220.500000 -164.500000 437.500000 
-213.500000 -164.500000 437.500000 
-220.500000 -157.500000 437.500000 
-220.500000 -164.500000 444.500000 
-213.500000 -157.500000 437.500000 
-213.500000 -164.500000 444.500000 
-220.500000 -157.500000 444.500000 
-213.500000 -157.500000 444.500000 
-206.500000 -150.500000 423.500000 
-199.500000 -150.500000 423.500000 
-206.500000 -143.500000 423.500000 
-206.500000 -150.500000 430.500000 
-199.500000 -143.500000 423.500000 
-199.500000 -150.500000 430.500000 
-206.500000 -143.500000 430.500000 
-199.500000 -143.500000 430.500000 
-206.500000 -164.500000 437.500000 
-199.500000 -164.500000 437.500000 
-206.500000 -157.500000 437.500000 
-206.500000 -164.500000 444.500000 
-199.500000 -157.500000 437.500000 
-199.500000 -164.500000 444.500000 
-206.500000 -157.500000 444.500000 
-220.500000 -150.500000 437.500000 
-213.500000 -150.500000 437.500000 
-220.500000 -143.500000 437.500000 
-220.500000 -150.500000 444.500000 
-213.500000 -143.500000 437.500000 
-213.500000 -150.500000 444.500000 
-220.500000 -143.500000 444.500000 
-213.500000 -143.500000 444.500000 
-206.500000 -150.500000 437.500000 
-199.500000 -150.500000 437.500000 
-206.500000 -143.500000 437.500000 
-206.500000 -150.500000 444.500000 
-199.500000 -143.500000 437.500000 
-185.500000 -136.500000 395.500000 
-185.500000 -136.500000 402.500000 
-185.500000 -129.500000 402.500000 
-178.500000 -136.500000 395.500000 
-171.500000 -136.500000 395.500000 
-178.500000 -129.500000 395.500000 
-178.500000 -136.500000 402.500000 
-171.500000 -129.500000 395.500000 
-171.500000 -136.500000 402.500000 
-178.500000 -129.500000 402.500000 
-171.500000 -129.500000 402.500000 
-185.500000 -122.500000 395.500000 
-185.500000 -115.500000 395.500000 
-185.500000 -122.500000 402.500000 
-185.500000 -115.500000 402.500000 
-192.500000 -136.500000 409.500000 
-185.500000 -136.500000 409.500000 
-192.500000 -129.500000 409.500000 
-192.500000 -136.500000 416.500000 
-185.500000 -129.500000 409.500000 
-185.500000 -136.500000 416.500000 
-192.500000 -129.500000 416.500000 
-185.500000 -129.500000 416.500000 
-178.500000 -122.500000 395.500000 
-171.500000 -122.500000 395.500000 
-178.500000 -115.500000 395.500000 
-178.500000 -122.500000 402.500000 
-171.500000 -115.500000 395.500000 
-171.500000 -122.500000 402.500000 
-178.500000 -115.500000 402.500000 
-171.500000 -115.500000 402.500000 
-178.500000 -136.500000 409.500000 
-171.500000 -136.500000 409.500000 
-178.500000 -129.500000 409.500000 
-178.500000 -136.500000 416.500000 
-171.500000 -129.500000 409.500000 
-178.500000 -129.500000 416.500000 
-171.500000 -129.500000 416.500000 
-192.500000 -122.500000 409.500000 
-185.500000 -122.500000 409.500000 
-192.500000 -115.500000 409.500000 
-192.500000 -122.500000 416.500000 
-185.500000 -115.500000 409.500000 
-185.500000 -122.500000 416.500000 
-192.500000 -115.500000 416.500000 
-185.500000 -115.500000 416.500000 
-178.500000 -122.500000 409.500000 
-171.500000 -122.500000 409.500000 
-178.500000 -115.500000 409.500000 
-178.500000 -122.500000 416.500000 
-171.500000 -115.500000 409.500000 
-171.500000 -122.500000 416.500000 
-178.500000 -115.500000 416.500000 
-171.500000 -115.500000 416.500000 
-192.500000 -164.500000 423.500000 
-192.500000 -157.500000 423.500000 
-192.500000 -164.500000 430.500000 
-192.500000 -157.500000 430.500000 
-192.500000 -150.500000 423.500000 
-185.500000 -150.500000 423.500000 
-192.500000 -143.500000 423.500000 
-192.500000 -150.500000 430.500000 
-185.500000 -143.500000 423.500000 
-192.500000 -143.500000 430.500000 
-178.500000 -143.500000 423.500000 
-220.500000 -136.500000 423.500000 
-213.500000 -136.500000 423.500000 
-220.500000 -129.500000 423.500000 
-220.500000 -136.500000 430.500000 
-213.500000 -129.500000 423.500000 
-213.500000 -136.500000 430.500000 
-220.500000 -129.500000 430.500000 
-213.500000 -129.500000 430.500000 
-206.500000 -136.500000 423.500000 
-199.500000 -136.500000 423.500000 
-206.500000 -129.500000 423.500000 
-206.500000 -136.500000 430.500000 
-199.500000 -129.500000 423.500000 
-199.500000 -136.500000 430.500000 
-206.500000 -129.500000 430.500000 
-199.500000 -129.500000 430.500000 
-220.500000 -122.500000 423.500000 
-213.500000 -122.500000 423.500000 
-220.500000 -115.500000 423.500000 
-220.500000 -122.500000 430.500000 
-213.500000 -115.500000 423.500000 
-213.500000 -122.500000 430.500000 
-220.500000 -115.500000 430.500000 
-213.500000 -115.500000 430.500000 
-220.500000 -136.500000 437.500000 
-213.500000 -136.500000 437.500000 
-220.500000 -129.500000 437.500000 
-220.500000 -136.500000 444.500000 
-213.500000 -129.500000 437.500000 
-220.500000 -129.500000 444.500000 
-206.500000 -122.500000 423.500000 
-199.500000 -122.500000 423.500000 
-206.500000 -115.500000 423.500000 
-206.500000 -122.500000 430.500000 
-199.500000 -115.500000 423.500000 
-199.500000 -122.500000 430.500000 
-206.500000 -115.500000 430.500000 
-206.500000 -136.500000 437.500000 
-199.500000 -136.500000 437.500000 
-206.500000 -129.500000 437.500000 
-220.500000 -122.500000 437.500000 
-192.500000 -136.500000 423.500000 
-185.500000 -136.500000 423.500000 
-192.500000 -129.500000 423.500000 
-192.500000 -136.500000 430.500000 
-185.500000 -129.500000 423.500000 
-192.500000 -129.500000 430.500000 
-178.500000 -136.500000 423.500000 
-178.500000 -129.500000 423.500000 
-192.500000 -122.500000 423.500000 
-185.500000 -122.500000 423.500000 
-192.500000 -115.500000 423.500000 
-185.500000 -115.500000 423.500000 
-164.500000 -157.500000 395.500000 
-157.500000 -157.500000 395.500000 
-164.500000 -150.500000 395.500000 
-157.500000 -150.500000 395.500000 
-164.500000 -143.500000 395.500000 
-157.500000 -143.500000 395.500000 
-164.500000 -143.500000 402.500000 
-150.500000 -143.500000 395.500000 
-164.500000 -136.500000 395.500000 
-157.500000 -136.500000 395.500000 
-164.500000 -129.500000 395.500000 
-164.500000 -136.500000 402.500000 
-157.500000 -129.500000 395.500000 
-157.500000 -136.500000 402.500000 
-164.500000 -129.500000 402.500000 
-157.500000 -129.500000 402.500000 
-150.500000 -136.500000 395.500000 
-143.500000 -136.500000 395.500000 
-150.500000 -129.500000 395.500000 
-143.500000 -129.500000 395.500000 
-164.500000 -122.500000 395.500000 
-157.500000 -122.500000 395.500000 
