2.441406
-2.441406 -275.878906 412.597656 
-41.503906 -270.996094 402.832031 
-41.503906 -266.113281 402.832031 
-41.503906 -270.996094 407.714844 
-70.800781 -310.058594 432.128906 
-70.800781 -310.058594 437.011719 
-70.800781 -305.175781 437.011719 
-65.917969 -310.058594 432.128906 
-61.035156 -310.058594 432.128906 
-65.917969 -310.058594 437.011719 
-61.035156 -310.058594 437.011719 
-70.800781 -310.058594 441.894531 
-70.800781 -305.175781 441.894531 
-70.800781 -310.058594 446.777344 
-70.800781 -305.175781 446.777344 
-65.917969 -310.058594 441.894531 
-61.035156 -310.058594 441.894531 
-65.917969 -305.175781 441.894531 
-65.917969 -310.058594 446.777344 
-61.035156 -310.058594 446.777344 
-65.917969 -305.175781 446.777344 
-56.152344 -310.058594 432.128906 
-51.269531 -310.058594 432.128906 
-56.152344 -310.058594 437.011719 
-51.269531 -305.175781 432.128906 
-51.269531 -310.058594 437.011719 
-56.152344 -305.175781 437.011719 
-51.269531 -305.175781 437.011719 
-46.386719 -310.058594 432.128906 
-41.503906 -310.058594 432.128906 
-46.386719 -305.175781 432.128906 
-46.386719 -310.058594 437.011719 
-41.503906 -305.175781 432.128906 
-41.503906 -310.058594 437.011719 
-46.386719 -305.175781 437.011719 
-41.503906 -305.175781 437.011719 
-51.269531 -310.058594 441.894531 
-56.152344 -310.058594 446.777344 
-41.503906 -300.292969 432.128906 
-46.386719 -310.058594 441.894531 
-41.503906 -310.058594 441.894531 
-46.386719 -305.175781 441.894531 
-46.386719 -310.058594 446.777344 
-41.503906 -305.175781 441.894531 
-41.503906 -310.058594 446.777344 
-41.503906 -305.175781 446.777344 
-70.800781 -310.058594 451.660156 
-70.800781 -305.175781 451.660156 
-70.800781 -305.175781 456.542969 
-65.917969 -310.058594 451.660156 
-61.035156 -310.058594 451.660156 
-65.917969 -305.175781 451.660156 
-65.917969 -310.058594 456.542969 
-61.035156 -305.175781 451.660156 
-61.035156 -310.058594 456.542969 
-65.917969 -305.175781 456.542969 
-61.035156 -305.175781 456.542969 
-70.800781 -300.292969 451.660156 
-70.800781 -305.175781 461.425781 
-65.917969 -300.292969 451.660156 
-65.917969 -300.292969 456.542969 
-61.035156 -300.292969 456.542969 
-65.917969 -310.058594 461.425781 
-61.035156 -310.058594 461.425781 
-65.917969 -305.175781 461.425781 
-65.917969 -310.058594 466.308594 
-61.035156 -305.175781 461.425781 
-61.035156 -310.058594 466.308594 
-65.917969 -305.175781 466.308594 
-61.035156 -305.175781 466.308594 
-70.800781 -300.292969 461.425781 
-70.800781 -300.292969 466.308594 
-65.917969 -300.292969 461.425781 
-61.035156 -300.292969 461.425781 
-65.917969 -295.410156 461.425781 
-65.917969 -300.292969 466.308594 
-61.035156 -300.292969 466.308594 
-65.917969 -295.410156 466.308594 
-61.035156 -295.410156 466.308594 
-56.152344 -310.058594 451.660156 
-51.269531 -310.058594 451.660156 
-56.152344 -310.058594 456.542969 
-51.269531 -310.058594 456.542969 
-56.152344 -305.175781 456.542969 
-51.269531 -305.175781 456.542969 
-46.386719 -310.058594 451.660156 
-46.386719 -310.058594 456.542969 
-56.152344 -310.058594 461.425781 
-51.269531 -310.058594 461.425781 
-56.152344 -305.175781 461.425781 
-56.152344 -310.058594 466.308594 
-51.269531 -305.175781 461.425781 
-51.269531 -310.058594 466.308594 
-56.152344 -305.175781 466.308594 
-51.269531 -305.175781 466.308594 
-46.386719 -310.058594 461.425781 
-41.503906 -310.058594 461.425781 
-46.386719 -305.175781 461.425781 
-46.386719 -310.058594 466.308594 
-41.503906 -310.058594 466.308594 
-46.386719 -305.175781 466.308594 
-41.503906 -305.175781 466.308594 
-56.152344 -300.292969 461.425781 
-56.152344 -300.292969 466.308594 
-51.269531 -300.292969 466.308594 
-31.738281 -270.996094 393.066406 
-36.621094 -270.996094 397.949219 
-31.738281 -266.113281 393.066406 
-31.738281 -270.996094 397.949219 
-36.621094 -266.113281 397.949219 
-31.738281 -266.113281 397.949219 
-26.855469 -270.996094 393.066406 
-21.972656 -270.996094 393.066406 
-26.855469 -266.113281 393.066406 
-26.855469 -270.996094 397.949219 
-21.972656 -266.113281 393.066406 
-21.972656 -270.996094 397.949219 
-26.855469 -266.113281 397.949219 
-21.972656 -266.113281 397.949219 
-31.738281 -261.230469 393.066406 
-36.621094 -261.230469 397.949219 
-31.738281 -256.347656 393.066406 
-31.738281 -261.230469 397.949219 
-31.738281 -256.347656 397.949219 
-36.621094 -270.996094 402.832031 
-31.738281 -270.996094 402.832031 
-36.621094 -266.113281 402.832031 
-36.621094 -270.996094 407.714844 
-31.738281 -266.113281 402.832031 
-31.738281 -270.996094 407.714844 
-36.621094 -266.113281 407.714844 
-31.738281 -266.113281 407.714844 
-26.855469 -261.230469 393.066406 
-21.972656 -261.230469 393.066406 
-26.855469 -256.347656 393.066406 
-26.855469 -261.230469 397.949219 
-21.972656 -256.347656 393.066406 
-21.972656 -261.230469 397.949219 
-26.855469 -256.347656 397.949219 
-21.972656 -256.347656 397.949219 
-26.855469 -270.996094 402.832031 
-21.972656 -270.996094 402.832031 
-26.855469 -266.113281 402.832031 
-26.855469 -270.996094 407.714844 
-21.972656 -266.113281 402.832031 
-21.972656 -270.996094 407.714844 
-26.855469 -266.113281 407.714844 
-21.972656 -266.113281 407.714844 
-31.738281 -261.230469 402.832031 
-31.738281 -261.230469 407.714844 
-26.855469 -261.230469 402.832031 
-21.972656 -261.230469 402.832031 
-26.855469 -256.347656 402.832031 
-26.855469 -261.230469 407.714844 
-21.972656 -256.347656 402.832031 
-21.972656 -261.230469 407.714844 
-17.089844 -270.996094 393.066406 
-12.207031 -270.996094 393.066406 
-17.089844 -266.113281 393.066406 
-17.089844 -270.996094 397.949219 
-12.207031 -266.113281 393.066406 
-12.207031 -270.996094 397.949219 
-17.089844 -266.113281 397.949219 
-12.207031 -266.113281 397.949219 
-7.324219 -266.113281 393.066406 
-7.324219 -270.996094 397.949219 
-7.324219 -266.113281 397.949219 
-2.441406 -266.113281 397.949219 
-17.089844 -261.230469 393.066406 
-12.207031 -261.230469 393.066406 
-17.089844 -256.347656 393.066406 
-17.089844 -261.230469 397.949219 
-12.207031 -256.347656 393.066406 
-12.207031 -261.230469 397.949219 
-17.089844 -256.347656 397.949219 
-12.207031 -256.347656 397.949219 
-17.089844 -270.996094 402.832031 
-12.207031 -270.996094 402.832031 
-17.089844 -266.113281 402.832031 
-17.089844 -270.996094 407.714844 
-12.207031 -266.113281 402.832031 
-12.207031 -270.996094 407.714844 
-17.089844 -266.113281 407.714844 
-12.207031 -266.113281 407.714844 
-7.324219 -261.230469 393.066406 
-2.441406 -261.230469 393.066406 
-7.324219 -256.347656 393.066406 
-7.324219 -261.230469 397.949219 
-2.441406 -256.347656 393.066406 
-2.441406 -261.230469 397.949219 
-7.324219 -256.347656 397.949219 
-2.441406 -256.347656 397.949219 
-7.324219 -270.996094 402.832031 
-2.441406 -270.996094 402.832031 
-7.324219 -266.113281 402.832031 
-7.324219 -270.996094 407.714844 
-2.441406 -266.113281 402.832031 
-2.441406 -270.996094 407.714844 
-7.324219 -266.113281 407.714844 
-2.441406 -266.113281 407.714844 
-17.089844 -261.230469 402.832031 
-12.207031 -261.230469 402.832031 
-17.089844 -256.347656 402.832031 
-17.089844 -261.230469 407.714844 
-12.207031 -256.347656 402.832031 
-12.207031 -261.230469 407.714844 
-7.324219 -261.230469 402.832031 
-2.441406 -261.230469 402.832031 
-7.324219 -256.347656 402.832031 
-7.324219 -261.230469 407.714844 
-2.441406 -256.347656 402.832031 
-2.441406 -261.230469 407.714844 
-26.855469 -251.464844 393.066406 
-21.972656 -251.464844 393.066406 
-21.972656 -246.582031 393.066406 
-21.972656 -251.464844 397.949219 
-36.621094 -270.996094 412.597656 
-31.738281 -270.996094 412.597656 
-26.855469 -270.996094 412.597656 
-21.972656 -270.996094 412.597656 
-26.855469 -266.113281 412.597656 
-21.972656 -266.113281 412.597656 
-21.972656 -270.996094 417.480469 
-17.089844 -251.464844 393.066406 
-12.207031 -251.464844 393.066406 
-17.089844 -246.582031 393.066406 
-17.089844 -251.464844 397.949219 
-12.207031 -246.582031 393.066406 
-12.207031 -251.464844 397.949219 
-12.207031 -246.582031 397.949219 
-7.324219 -251.464844 393.066406 
-2.441406 -251.464844 393.066406 
-7.324219 -246.582031 393.066406 
-7.324219 -251.464844 397.949219 
-2.441406 -246.582031 393.066406 
-2.441406 -251.464844 397.949219 
-7.324219 -246.582031 397.949219 
-2.441406 -246.582031 397.949219 
-7.324219 -241.699219 393.066406 
-2.441406 -241.699219 393.066406 
-17.089844 -270.996094 412.597656 
-12.207031 -270.996094 412.597656 
-17.089844 -266.113281 412.597656 
-17.089844 -270.996094 417.480469 
-12.207031 -266.113281 412.597656 
-7.324219 -270.996094 412.597656 
-36.621094 -310.058594 432.128906 
-31.738281 -310.058594 432.128906 
-36.621094 -305.175781 432.128906 
-36.621094 -310.058594 437.011719 
-31.738281 -305.175781 432.128906 
-31.738281 -310.058594 437.011719 
-36.621094 -305.175781 437.011719 
-26.855469 -310.058594 432.128906 
-21.972656 -310.058594 432.128906 
-26.855469 -305.175781 432.128906 
-26.855469 -310.058594 437.011719 
-21.972656 -305.175781 432.128906 
-21.972656 -310.058594 437.011719 
-36.621094 -300.292969 432.128906 
-31.738281 -300.292969 432.128906 
-36.621094 -310.058594 441.894531 
-31.738281 -310.058594 441.894531 
-36.621094 -305.175781 441.894531 
-36.621094 -310.058594 446.777344 
-31.738281 -305.175781 441.894531 
-31.738281 -310.058594 446.777344 
-36.621094 -305.175781 446.777344 
-31.738281 -305.175781 446.777344 
-26.855469 -300.292969 432.128906 
-21.972656 -300.292969 432.128906 
-21.972656 -295.410156 432.128906 
-26.855469 -310.058594 441.894531 
-21.972656 -310.058594 441.894531 
-26.855469 -305.175781 441.894531 
-26.855469 -310.058594 446.777344 
-21.972656 -305.175781 441.894531 
-26.855469 -305.175781 446.777344 
-21.972656 -305.175781 446.777344 
-36.621094 -300.292969 446.777344 
-17.089844 -300.292969 432.128906 
-17.089844 -295.410156 432.128906 
-36.621094 -310.058594 451.660156 
-31.738281 -310.058594 451.660156 
-31.738281 -305.175781 451.660156 
-31.738281 -310.058594 456.542969 
-26.855469 -310.058594 451.660156 
-21.972656 -310.058594 451.660156 
-26.855469 -305.175781 451.660156 
-26.855469 -310.058594 456.542969 
-21.972656 -305.175781 451.660156 
-21.972656 -310.058594 456.542969 
-21.972656 -305.175781 456.542969 
-36.621094 -310.058594 466.308594 
-21.972656 -300.292969 451.660156 
-17.089844 -300.292969 456.542969 
-61.035156 -310.058594 471.191406 
-65.917969 -305.175781 471.191406 
-61.035156 -305.175781 471.191406 
-61.035156 -310.058594 476.074219 
-65.917969 -305.175781 476.074219 
-61.035156 -305.175781 476.074219 
-65.917969 -300.292969 471.191406 
-61.035156 -300.292969 471.191406 
-65.917969 -295.410156 471.191406 
-65.917969 -300.292969 476.074219 
-61.035156 -295.410156 471.191406 
-61.035156 -300.292969 476.074219 
-65.917969 -295.410156 476.074219 
-61.035156 -295.410156 476.074219 
-65.917969 -305.175781 480.957031 
-61.035156 -305.175781 480.957031 
-61.035156 -305.175781 485.839844 
-65.917969 -300.292969 480.957031 
-61.035156 -300.292969 480.957031 
-65.917969 -295.410156 480.957031 
-65.917969 -300.292969 485.839844 
-61.035156 -295.410156 480.957031 
-61.035156 -300.292969 485.839844 
-65.917969 -295.410156 485.839844 
-61.035156 -295.410156 485.839844 
-56.152344 -310.058594 471.191406 
-51.269531 -310.058594 471.191406 
-56.152344 -305.175781 471.191406 
-56.152344 -310.058594 476.074219 
-51.269531 -305.175781 471.191406 
-51.269531 -310.058594 476.074219 
-56.152344 -305.175781 476.074219 
-51.269531 -305.175781 476.074219 
-46.386719 -310.058594 471.191406 
-41.503906 -310.058594 471.191406 
-46.386719 -305.175781 471.191406 
-46.386719 -310.058594 476.074219 
-41.503906 -305.175781 471.191406 
-41.503906 -310.058594 476.074219 
-46.386719 -305.175781 476.074219 
-41.503906 -305.175781 476.074219 
-56.152344 -300.292969 471.191406 
-51.269531 -300.292969 471.191406 
-56.152344 -295.410156 471.191406 
-56.152344 -300.292969 476.074219 
-51.269531 -300.292969 476.074219 
-56.152344 -295.410156 476.074219 
-51.269531 -295.410156 476.074219 
-56.152344 -310.058594 480.957031 
-51.269531 -310.058594 480.957031 
-56.152344 -305.175781 480.957031 
-51.269531 -305.175781 480.957031 
-51.269531 -310.058594 485.839844 
-56.152344 -305.175781 485.839844 
-51.269531 -305.175781 485.839844 
-46.386719 -300.292969 471.191406 
-46.386719 -300.292969 476.074219 
-41.503906 -300.292969 476.074219 
-46.386719 -310.058594 480.957031 
-46.386719 -305.175781 480.957031 
-41.503906 -305.175781 480.957031 
-46.386719 -305.175781 485.839844 
-41.503906 -305.175781 485.839844 
-56.152344 -300.292969 480.957031 
-51.269531 -300.292969 480.957031 
-56.152344 -295.410156 480.957031 
-56.152344 -300.292969 485.839844 
-51.269531 -295.410156 480.957031 
-51.269531 -300.292969 485.839844 
-56.152344 -295.410156 485.839844 
-51.269531 -295.410156 485.839844 
-46.386719 -300.292969 480.957031 
-41.503906 -300.292969 480.957031 
-46.386719 -295.410156 480.957031 
-46.386719 -300.292969 485.839844 
-41.503906 -300.292969 485.839844 
-46.386719 -295.410156 485.839844 
-65.917969 -290.527344 471.191406 
-61.035156 -290.527344 476.074219 
-65.917969 -290.527344 485.839844 
-61.035156 -305.175781 490.722656 
-65.917969 -300.292969 490.722656 
-61.035156 -300.292969 490.722656 
-65.917969 -295.410156 490.722656 
-61.035156 -295.410156 490.722656 
-61.035156 -300.292969 495.605469 
-65.917969 -295.410156 495.605469 
-61.035156 -295.410156 495.605469 
-61.035156 -300.292969 500.488281 
-65.917969 -295.410156 500.488281 
-61.035156 -295.410156 500.488281 
-61.035156 -295.410156 505.371094 
-56.152344 -290.527344 480.957031 
-56.152344 -290.527344 485.839844 
-51.269531 -290.527344 485.839844 
-56.152344 -305.175781 490.722656 
-51.269531 -305.175781 490.722656 
-56.152344 -305.175781 495.605469 
-51.269531 -305.175781 495.605469 
-46.386719 -305.175781 490.722656 
-41.503906 -305.175781 490.722656 
-56.152344 -300.292969 490.722656 
-51.269531 -300.292969 490.722656 
-56.152344 -295.410156 490.722656 
-56.152344 -300.292969 495.605469 
-51.269531 -295.410156 490.722656 
-51.269531 -300.292969 495.605469 
-51.269531 -295.410156 495.605469 
-46.386719 -300.292969 490.722656 
-41.503906 -300.292969 490.722656 
-46.386719 -295.410156 490.722656 
-46.386719 -300.292969 495.605469 
-41.503906 -295.410156 490.722656 
-41.503906 -300.292969 495.605469 
-46.386719 -295.410156 495.605469 
-41.503906 -295.410156 495.605469 
-56.152344 -300.292969 500.488281 
-51.269531 -300.292969 500.488281 
-56.152344 -300.292969 505.371094 
-51.269531 -295.410156 500.488281 
-56.152344 -295.410156 505.371094 
-46.386719 -300.292969 500.488281 
-41.503906 -300.292969 500.488281 
-46.386719 -295.410156 500.488281 
-41.503906 -295.410156 500.488281 
-65.917969 -290.527344 490.722656 
-65.917969 -290.527344 495.605469 
-36.621094 -310.058594 471.191406 
-31.738281 -310.058594 471.191406 
-36.621094 -305.175781 471.191406 
-36.621094 -310.058594 476.074219 
-36.621094 -305.175781 476.074219 
-31.738281 -305.175781 476.074219 
-36.621094 -305.175781 480.957031 
-31.738281 -305.175781 480.957031 
-36.621094 -300.292969 495.605469 
310.058594 -744.628906 2.441406 
310.058594 -739.746094 2.441406 
305.175781 -734.863281 2.441406 
310.058594 -734.863281 2.441406 
310.058594 -739.746094 7.324219 
305.175781 -734.863281 7.324219 
310.058594 -734.863281 7.324219 
300.292969 -729.980469 2.441406 
300.292969 -725.097656 2.441406 
300.292969 -729.980469 7.324219 
300.292969 -725.097656 7.324219 
305.175781 -729.980469 2.441406 
310.058594 -729.980469 2.441406 
305.175781 -725.097656 2.441406 
305.175781 -729.980469 7.324219 
310.058594 -729.980469 7.324219 
305.175781 -725.097656 7.324219 
310.058594 -739.746094 12.207031 
310.058594 -734.863281 12.207031 
310.058594 -739.746094 17.089844 
310.058594 -734.863281 17.089844 
300.292969 -725.097656 12.207031 
300.292969 -725.097656 17.089844 
305.175781 -729.980469 12.207031 
310.058594 -729.980469 12.207031 
305.175781 -725.097656 12.207031 
305.175781 -729.980469 17.089844 
310.058594 -729.980469 17.089844 
305.175781 -725.097656 17.089844 
290.527344 -710.449219 7.324219 
290.527344 -710.449219 12.207031 
290.527344 -705.566406 12.207031 
290.527344 -705.566406 17.089844 
295.410156 -720.214844 2.441406 
295.410156 -720.214844 7.324219 
300.292969 -720.214844 7.324219 
295.410156 -715.332031 7.324219 
300.292969 -720.214844 12.207031 
295.410156 -715.332031 12.207031 
300.292969 -715.332031 12.207031 
300.292969 -720.214844 17.089844 
295.410156 -715.332031 17.089844 
300.292969 -715.332031 17.089844 
305.175781 -720.214844 17.089844 
295.410156 -710.449219 12.207031 
295.410156 -710.449219 17.089844 
295.410156 -705.566406 17.089844 
310.058594 -734.863281 21.972656 
305.175781 -729.980469 21.972656 
305.175781 -725.097656 21.972656 
305.175781 -725.097656 26.855469 
290.527344 -705.566406 21.972656 
290.527344 -705.566406 26.855469 
300.292969 -720.214844 21.972656 
295.410156 -715.332031 21.972656 
300.292969 -715.332031 21.972656 
300.292969 -720.214844 26.855469 
300.292969 -715.332031 26.855469 
305.175781 -720.214844 21.972656 
305.175781 -720.214844 26.855469 
295.410156 -710.449219 21.972656 
295.410156 -705.566406 21.972656 
295.410156 -710.449219 26.855469 
300.292969 -710.449219 26.855469 
295.410156 -705.566406 26.855469 
300.292969 -720.214844 31.738281 
300.292969 -715.332031 31.738281 
300.292969 -715.332031 36.621094 
295.410156 -710.449219 31.738281 
300.292969 -710.449219 31.738281 
295.410156 -705.566406 31.738281 
295.410156 -705.566406 36.621094 
270.996094 -671.386719 26.855469 
270.996094 -671.386719 31.738281 
270.996094 -666.503906 31.738281 
270.996094 -666.503906 36.621094 
285.644531 -700.683594 12.207031 
285.644531 -700.683594 17.089844 
290.527344 -700.683594 17.089844 
285.644531 -695.800781 17.089844 
280.761719 -690.917969 17.089844 
290.527344 -700.683594 21.972656 
285.644531 -695.800781 21.972656 
290.527344 -700.683594 26.855469 
285.644531 -695.800781 26.855469 
290.527344 -695.800781 26.855469 
280.761719 -690.917969 21.972656 
280.761719 -686.035156 21.972656 
280.761719 -686.035156 26.855469 
285.644531 -690.917969 21.972656 
285.644531 -690.917969 26.855469 
285.644531 -686.035156 26.855469 
290.527344 -700.683594 31.738281 
290.527344 -695.800781 31.738281 
290.527344 -700.683594 36.621094 
290.527344 -695.800781 36.621094 
280.761719 -686.035156 31.738281 
285.644531 -690.917969 31.738281 
285.644531 -686.035156 31.738281 
285.644531 -690.917969 36.621094 
290.527344 -690.917969 36.621094 
285.644531 -686.035156 36.621094 
295.410156 -700.683594 31.738281 
295.410156 -700.683594 36.621094 
275.878906 -681.152344 21.972656 
275.878906 -681.152344 26.855469 
280.761719 -681.152344 26.855469 
275.878906 -676.269531 26.855469 
280.761719 -681.152344 31.738281 
275.878906 -676.269531 31.738281 
280.761719 -681.152344 36.621094 
275.878906 -676.269531 36.621094 
280.761719 -676.269531 36.621094 
275.878906 -671.386719 31.738281 
275.878906 -671.386719 36.621094 
266.113281 -661.621094 31.738281 
266.113281 -661.621094 36.621094 
270.996094 -661.621094 36.621094 
266.113281 -656.738281 36.621094 
270.996094 -666.503906 41.503906 
290.527344 -695.800781 41.503906 
285.644531 -690.917969 41.503906 
285.644531 -686.035156 41.503906 
285.644531 -690.917969 46.386719 
285.644531 -686.035156 46.386719 
285.644531 -686.035156 51.269531 
295.410156 -695.800781 56.152344 
280.761719 -681.152344 41.503906 
280.761719 -676.269531 41.503906 
280.761719 -681.152344 46.386719 
280.761719 -676.269531 46.386719 
285.644531 -681.152344 46.386719 
275.878906 -671.386719 41.503906 
275.878906 -666.503906 41.503906 
275.878906 -671.386719 46.386719 
275.878906 -666.503906 46.386719 
280.761719 -676.269531 51.269531 
280.761719 -676.269531 56.152344 
285.644531 -681.152344 51.269531 
280.761719 -671.386719 51.269531 
275.878906 -666.503906 51.269531 
280.761719 -671.386719 56.152344 
275.878906 -666.503906 56.152344 
290.527344 -690.917969 61.035156 
290.527344 -686.035156 61.035156 
280.761719 -671.386719 61.035156 
275.878906 -666.503906 61.035156 
280.761719 -671.386719 65.917969 
275.878906 -666.503906 65.917969 
246.582031 -656.738281 46.386719 
246.582031 -656.738281 51.269531 
246.582031 -651.855469 51.269531 
270.996094 -661.621094 41.503906 
266.113281 -656.738281 41.503906 
270.996094 -661.621094 46.386719 
266.113281 -656.738281 46.386719 
270.996094 -656.738281 46.386719 
261.230469 -646.972656 41.503906 
261.230469 -646.972656 46.386719 
266.113281 -651.855469 41.503906 
266.113281 -651.855469 46.386719 
266.113281 -646.972656 46.386719 
270.996094 -661.621094 51.269531 
270.996094 -656.738281 51.269531 
270.996094 -661.621094 56.152344 
270.996094 -656.738281 56.152344 
266.113281 -651.855469 51.269531 
266.113281 -646.972656 51.269531 
270.996094 -651.855469 56.152344 
266.113281 -646.972656 56.152344 
251.464844 -627.441406 51.269531 
256.347656 -642.089844 41.503906 
261.230469 -642.089844 46.386719 
256.347656 -637.207031 46.386719 
261.230469 -642.089844 51.269531 
256.347656 -637.207031 51.269531 
261.230469 -637.207031 51.269531 
261.230469 -642.089844 56.152344 
261.230469 -637.207031 56.152344 
266.113281 -642.089844 51.269531 
266.113281 -642.089844 56.152344 
266.113281 -637.207031 56.152344 
256.347656 -632.324219 51.269531 
256.347656 -632.324219 56.152344 
261.230469 -632.324219 56.152344 
256.347656 -627.441406 56.152344 
270.996094 -656.738281 61.035156 
270.996094 -651.855469 61.035156 
266.113281 -646.972656 61.035156 
270.996094 -646.972656 61.035156 
270.996094 -651.855469 65.917969 
270.996094 -646.972656 65.917969 
270.996094 -651.855469 70.800781 
270.996094 -646.972656 70.800781 
270.996094 -646.972656 75.683594 
261.230469 -637.207031 61.035156 
261.230469 -637.207031 65.917969 
266.113281 -642.089844 61.035156 
266.113281 -637.207031 61.035156 
266.113281 -642.089844 65.917969 
270.996094 -642.089844 65.917969 
266.113281 -637.207031 65.917969 
256.347656 -632.324219 61.035156 
261.230469 -632.324219 61.035156 
256.347656 -627.441406 61.035156 
261.230469 -627.441406 61.035156 
261.230469 -632.324219 65.917969 
256.347656 -627.441406 65.917969 
261.230469 -627.441406 65.917969 
266.113281 -632.324219 61.035156 
266.113281 -632.324219 65.917969 
266.113281 -642.089844 70.800781 
270.996094 -642.089844 70.800781 
266.113281 -637.207031 70.800781 
266.113281 -642.089844 75.683594 
270.996094 -637.207031 70.800781 
270.996094 -642.089844 75.683594 
266.113281 -637.207031 75.683594 
270.996094 -637.207031 75.683594 
261.230469 -632.324219 70.800781 
256.347656 -627.441406 70.800781 
261.230469 -627.441406 70.800781 
261.230469 -632.324219 75.683594 
261.230469 -627.441406 75.683594 
266.113281 -632.324219 70.800781 
266.113281 -627.441406 70.800781 
266.113281 -632.324219 75.683594 
270.996094 -632.324219 75.683594 
266.113281 -627.441406 75.683594 
270.996094 -627.441406 75.683594 
275.878906 -661.621094 61.035156 
275.878906 -661.621094 65.917969 
275.878906 -661.621094 70.800781 
275.878906 -656.738281 70.800781 
275.878906 -651.855469 75.683594 
275.878906 -646.972656 75.683594 
212.402344 -632.324219 100.097656 
212.402344 -627.441406 104.980469 
266.113281 -637.207031 80.566406 
270.996094 -637.207031 80.566406 
261.230469 -632.324219 80.566406 
261.230469 -627.441406 80.566406 
261.230469 -627.441406 85.449219 
266.113281 -632.324219 80.566406 
270.996094 -632.324219 80.566406 
266.113281 -627.441406 80.566406 
270.996094 -627.441406 80.566406 
266.113281 -627.441406 85.449219 
178.222656 -803.222656 305.175781 
183.105469 -808.105469 310.058594 
178.222656 -803.222656 310.058594 
183.105469 -803.222656 310.058594 
187.988281 -803.222656 310.058594 
192.871094 -803.222656 310.058594 
178.222656 -793.457031 300.292969 
183.105469 -793.457031 300.292969 
187.988281 -793.457031 300.292969 
192.871094 -793.457031 300.292969 
183.105469 -788.574219 295.410156 
178.222656 -788.574219 300.292969 
183.105469 -783.691406 295.410156 
183.105469 -788.574219 300.292969 
178.222656 -783.691406 300.292969 
183.105469 -783.691406 300.292969 
178.222656 -798.339844 305.175781 
183.105469 -798.339844 305.175781 
178.222656 -793.457031 305.175781 
183.105469 -793.457031 305.175781 
183.105469 -798.339844 310.058594 
183.105469 -793.457031 310.058594 
187.988281 -783.691406 295.410156 
187.988281 -788.574219 300.292969 
192.871094 -783.691406 295.410156 
192.871094 -788.574219 300.292969 
187.988281 -783.691406 300.292969 
192.871094 -783.691406 300.292969 
187.988281 -798.339844 305.175781 
192.871094 -798.339844 305.175781 
187.988281 -793.457031 305.175781 
187.988281 -798.339844 310.058594 
192.871094 -793.457031 305.175781 
192.871094 -798.339844 310.058594 
187.988281 -793.457031 310.058594 
192.871094 -793.457031 310.058594 
178.222656 -788.574219 305.175781 
183.105469 -788.574219 305.175781 
178.222656 -783.691406 305.175781 
183.105469 -783.691406 305.175781 
183.105469 -788.574219 310.058594 
183.105469 -783.691406 310.058594 
187.988281 -788.574219 305.175781 
192.871094 -788.574219 305.175781 
187.988281 -783.691406 305.175781 
187.988281 -788.574219 310.058594 
192.871094 -783.691406 305.175781 
192.871094 -788.574219 310.058594 
187.988281 -783.691406 310.058594 
192.871094 -783.691406 310.058594 
197.753906 -783.691406 300.292969 
197.753906 -793.457031 305.175781 
197.753906 -798.339844 310.058594 
197.753906 -793.457031 310.058594 
197.753906 -788.574219 305.175781 
197.753906 -783.691406 305.175781 
197.753906 -788.574219 310.058594 
202.636719 -783.691406 305.175781 
202.636719 -788.574219 310.058594 
197.753906 -783.691406 310.058594 
202.636719 -783.691406 310.058594 
119.628906 -744.628906 187.988281 
124.511719 -744.628906 192.871094 
139.160156 -749.511719 192.871094 
144.042969 -749.511719 192.871094 
144.042969 -744.628906 192.871094 
148.925781 -744.628906 192.871094 
119.628906 -739.746094 187.988281 
119.628906 -734.863281 187.988281 
124.511719 -739.746094 192.871094 
119.628906 -729.980469 187.988281 
144.042969 -710.449219 173.339844 
144.042969 -734.863281 183.105469 
144.042969 -729.980469 183.105469 
144.042969 -725.097656 183.105469 
144.042969 -739.746094 187.988281 
148.925781 -725.097656 183.105469 
153.808594 -725.097656 183.105469 
148.925781 -739.746094 187.988281 
148.925781 -734.863281 187.988281 
148.925781 -739.746094 192.871094 
153.808594 -739.746094 192.871094 
153.808594 -734.863281 192.871094 
148.925781 -729.980469 187.988281 
153.808594 -729.980469 187.988281 
148.925781 -725.097656 187.988281 
153.808594 -725.097656 187.988281 
144.042969 -720.214844 178.222656 
144.042969 -715.332031 178.222656 
148.925781 -720.214844 178.222656 
148.925781 -715.332031 178.222656 
148.925781 -720.214844 183.105469 
153.808594 -715.332031 178.222656 
153.808594 -720.214844 183.105469 
148.925781 -715.332031 183.105469 
153.808594 -715.332031 183.105469 
144.042969 -710.449219 178.222656 
144.042969 -705.566406 178.222656 
148.925781 -710.449219 178.222656 
153.808594 -710.449219 178.222656 
148.925781 -705.566406 178.222656 
148.925781 -710.449219 183.105469 
153.808594 -705.566406 178.222656 
153.808594 -710.449219 183.105469 
148.925781 -705.566406 183.105469 
153.808594 -705.566406 183.105469 
153.808594 -720.214844 187.988281 
153.808594 -715.332031 187.988281 
148.925781 -715.332031 192.871094 
153.808594 -710.449219 187.988281 
129.394531 -749.511719 197.753906 
119.628906 -764.160156 222.167969 
124.511719 -764.160156 227.050781 
124.511719 -764.160156 231.933594 
129.394531 -764.160156 231.933594 
139.160156 -754.394531 202.636719 
144.042969 -754.394531 202.636719 
148.925781 -754.394531 202.636719 
153.808594 -754.394531 202.636719 
144.042969 -749.511719 197.753906 
144.042969 -749.511719 202.636719 
144.042969 -754.394531 207.519531 
148.925781 -749.511719 197.753906 
153.808594 -749.511719 197.753906 
148.925781 -744.628906 197.753906 
148.925781 -749.511719 202.636719 
153.808594 -744.628906 197.753906 
153.808594 -749.511719 202.636719 
153.808594 -744.628906 202.636719 
148.925781 -754.394531 207.519531 
148.925781 -759.277344 212.402344 
153.808594 -754.394531 207.519531 
153.808594 -759.277344 212.402344 
148.925781 -754.394531 212.402344 
153.808594 -754.394531 212.402344 
148.925781 -749.511719 207.519531 
153.808594 -749.511719 207.519531 
124.511719 -759.277344 227.050781 
119.628906 -759.277344 231.933594 
124.511719 -759.277344 231.933594 
153.808594 -759.277344 217.285156 
153.808594 -739.746094 197.753906 
148.925781 -725.097656 197.753906 
144.042969 -700.683594 173.339844 
144.042969 -695.800781 173.339844 
148.925781 -700.683594 173.339844 
148.925781 -695.800781 173.339844 
153.808594 -695.800781 173.339844 
144.042969 -690.917969 173.339844 
144.042969 -686.035156 173.339844 
148.925781 -690.917969 173.339844 
153.808594 -690.917969 173.339844 
148.925781 -686.035156 173.339844 
153.808594 -686.035156 173.339844 
144.042969 -681.152344 173.339844 
153.808594 -681.152344 168.457031 
148.925781 -676.269531 168.457031 
148.925781 -681.152344 173.339844 
153.808594 -676.269531 168.457031 
153.808594 -681.152344 173.339844 
148.925781 -676.269531 173.339844 
153.808594 -676.269531 173.339844 
144.042969 -671.386719 168.457031 
148.925781 -671.386719 168.457031 
153.808594 -671.386719 168.457031 
148.925781 -666.503906 168.457031 
148.925781 -671.386719 173.339844 
153.808594 -666.503906 168.457031 
153.808594 -671.386719 173.339844 
148.925781 -666.503906 173.339844 
153.808594 -666.503906 173.339844 
144.042969 -695.800781 178.222656 
148.925781 -700.683594 178.222656 
153.808594 -700.683594 178.222656 
148.925781 -695.800781 178.222656 
148.925781 -700.683594 183.105469 
153.808594 -695.800781 178.222656 
153.808594 -700.683594 183.105469 
148.925781 -695.800781 183.105469 
153.808594 -695.800781 183.105469 
148.925781 -690.917969 178.222656 
153.808594 -690.917969 178.222656 
148.925781 -686.035156 178.222656 
148.925781 -690.917969 183.105469 
153.808594 -686.035156 178.222656 
153.808594 -690.917969 183.105469 
148.925781 -686.035156 183.105469 
153.808594 -686.035156 183.105469 
148.925781 -681.152344 178.222656 
153.808594 -681.152344 178.222656 
148.925781 -676.269531 178.222656 
153.808594 -676.269531 178.222656 
153.808594 -681.152344 183.105469 
153.808594 -676.269531 183.105469 
148.925781 -671.386719 178.222656 
153.808594 -671.386719 178.222656 
153.808594 -666.503906 178.222656 
153.808594 -656.738281 163.574219 
144.042969 -651.855469 163.574219 
144.042969 -646.972656 163.574219 
144.042969 -661.621094 168.457031 
148.925781 -651.855469 163.574219 
153.808594 -651.855469 163.574219 
148.925781 -646.972656 163.574219 
153.808594 -646.972656 163.574219 
148.925781 -661.621094 168.457031 
153.808594 -661.621094 168.457031 
148.925781 -656.738281 168.457031 
148.925781 -661.621094 173.339844 
153.808594 -656.738281 168.457031 
153.808594 -661.621094 173.339844 
153.808594 -656.738281 173.339844 
148.925781 -651.855469 168.457031 
153.808594 -651.855469 168.457031 
148.925781 -646.972656 168.457031 
153.808594 -646.972656 168.457031 
153.808594 -651.855469 173.339844 
148.925781 -637.207031 158.691406 
148.925781 -642.089844 163.574219 
153.808594 -637.207031 158.691406 
153.808594 -642.089844 163.574219 
148.925781 -637.207031 163.574219 
153.808594 -637.207031 163.574219 
148.925781 -632.324219 158.691406 
153.808594 -632.324219 158.691406 
148.925781 -627.441406 158.691406 
153.808594 -627.441406 158.691406 
153.808594 -632.324219 163.574219 
153.808594 -642.089844 168.457031 
153.808594 -637.207031 168.457031 
153.808594 -661.621094 178.222656 
124.511719 -764.160156 236.816406 
124.511719 -764.160156 241.699219 
129.394531 -769.042969 236.816406 
134.277344 -769.042969 236.816406 
129.394531 -764.160156 236.816406 
134.277344 -764.160156 236.816406 
134.277344 -769.042969 241.699219 
129.394531 -764.160156 241.699219 
134.277344 -764.160156 241.699219 
134.277344 -769.042969 246.582031 
129.394531 -764.160156 246.582031 
134.277344 -764.160156 246.582031 
134.277344 -769.042969 251.464844 
129.394531 -764.160156 251.464844 
134.277344 -764.160156 251.464844 
139.160156 -769.042969 241.699219 
139.160156 -769.042969 246.582031 
139.160156 -764.160156 246.582031 
119.628906 -759.277344 236.816406 
124.511719 -759.277344 236.816406 
124.511719 -759.277344 241.699219 
124.511719 -754.394531 241.699219 
129.394531 -759.277344 241.699219 
124.511719 -759.277344 246.582031 
119.628906 -754.394531 246.582031 
124.511719 -754.394531 246.582031 
124.511719 -759.277344 251.464844 
124.511719 -754.394531 251.464844 
129.394531 -759.277344 246.582031 
134.277344 -759.277344 246.582031 
129.394531 -754.394531 246.582031 
129.394531 -759.277344 251.464844 
134.277344 -754.394531 246.582031 
134.277344 -759.277344 251.464844 
129.394531 -754.394531 251.464844 
134.277344 -754.394531 251.464844 
119.628906 -749.511719 251.464844 
124.511719 -749.511719 251.464844 
119.628906 -744.628906 251.464844 
124.511719 -744.628906 251.464844 
129.394531 -749.511719 251.464844 
129.394531 -764.160156 256.347656 
134.277344 -764.160156 256.347656 
139.160156 -754.394531 251.464844 
139.160156 -749.511719 251.464844 
144.042969 -749.511719 251.464844 
124.511719 -759.277344 256.347656 
124.511719 -754.394531 256.347656 
129.394531 -759.277344 256.347656 
134.277344 -759.277344 256.347656 
129.394531 -754.394531 256.347656 
129.394531 -759.277344 261.230469 
134.277344 -754.394531 256.347656 
129.394531 -754.394531 261.230469 
134.277344 -754.394531 261.230469 
124.511719 -749.511719 256.347656 
119.628906 -744.628906 256.347656 
124.511719 -744.628906 256.347656 
124.511719 -749.511719 261.230469 
124.511719 -744.628906 261.230469 
129.394531 -749.511719 256.347656 
129.394531 -744.628906 256.347656 
129.394531 -749.511719 261.230469 
129.394531 -744.628906 261.230469 
124.511719 -744.628906 266.113281 
129.394531 -749.511719 266.113281 
129.394531 -744.628906 266.113281 
139.160156 -754.394531 256.347656 
119.628906 -739.746094 251.464844 
124.511719 -739.746094 251.464844 
124.511719 -734.863281 251.464844 
119.628906 -739.746094 256.347656 
124.511719 -739.746094 256.347656 
119.628906 -734.863281 256.347656 
124.511719 -734.863281 256.347656 
124.511719 -739.746094 261.230469 
124.511719 -734.863281 261.230469 
129.394531 -739.746094 256.347656 
129.394531 -739.746094 261.230469 
129.394531 -734.863281 261.230469 
124.511719 -729.980469 256.347656 
124.511719 -729.980469 261.230469 
124.511719 -725.097656 261.230469 
124.511719 -739.746094 266.113281 
124.511719 -734.863281 266.113281 
124.511719 -739.746094 270.996094 
124.511719 -734.863281 270.996094 
129.394531 -739.746094 266.113281 
129.394531 -734.863281 266.113281 
129.394531 -734.863281 270.996094 
124.511719 -729.980469 266.113281 
124.511719 -725.097656 266.113281 
124.511719 -729.980469 270.996094 
129.394531 -729.980469 266.113281 
129.394531 -729.980469 270.996094 
129.394531 -725.097656 270.996094 
124.511719 -720.214844 261.230469 
124.511719 -720.214844 266.113281 
124.511719 -715.332031 266.113281 
158.691406 -734.863281 192.871094 
158.691406 -725.097656 187.988281 
158.691406 -729.980469 192.871094 
158.691406 -725.097656 192.871094 
163.574219 -725.097656 192.871094 
168.457031 -725.097656 192.871094 
158.691406 -720.214844 183.105469 
158.691406 -715.332031 183.105469 
158.691406 -710.449219 178.222656 
158.691406 -705.566406 178.222656 
158.691406 -710.449219 183.105469 
163.574219 -705.566406 178.222656 
163.574219 -710.449219 183.105469 
158.691406 -705.566406 183.105469 
163.574219 -705.566406 183.105469 
158.691406 -720.214844 187.988281 
163.574219 -720.214844 187.988281 
158.691406 -715.332031 187.988281 
158.691406 -720.214844 192.871094 
163.574219 -715.332031 187.988281 
163.574219 -720.214844 192.871094 
158.691406 -715.332031 192.871094 
163.574219 -715.332031 192.871094 
168.457031 -710.449219 183.105469 
168.457031 -705.566406 183.105469 
168.457031 -715.332031 187.988281 
168.457031 -720.214844 192.871094 
168.457031 -715.332031 192.871094 
173.339844 -715.332031 192.871094 
158.691406 -710.449219 187.988281 
163.574219 -710.449219 187.988281 
163.574219 -705.566406 187.988281 
168.457031 -710.449219 187.988281 
173.339844 -710.449219 187.988281 
168.457031 -705.566406 187.988281 
168.457031 -710.449219 192.871094 
173.339844 -705.566406 187.988281 
173.339844 -710.449219 192.871094 
178.222656 -705.566406 187.988281 
178.222656 -710.449219 192.871094 
158.691406 -749.511719 202.636719 
158.691406 -744.628906 202.636719 
158.691406 -754.394531 207.519531 
158.691406 -759.277344 212.402344 
158.691406 -754.394531 212.402344 
158.691406 -749.511719 207.519531 
158.691406 -749.511719 212.402344 
163.574219 -744.628906 207.519531 
158.691406 -759.277344 217.285156 
158.691406 -754.394531 217.285156 
158.691406 -739.746094 197.753906 
158.691406 -734.863281 197.753906 
163.574219 -734.863281 197.753906 
163.574219 -739.746094 202.636719 
163.574219 -734.863281 202.636719 
163.574219 -729.980469 197.753906 
163.574219 -725.097656 197.753906 
168.457031 -725.097656 197.753906 
168.457031 -729.980469 202.636719 
168.457031 -725.097656 202.636719 
173.339844 -725.097656 202.636719 
163.574219 -720.214844 197.753906 
168.457031 -720.214844 197.753906 
173.339844 -720.214844 197.753906 
173.339844 -715.332031 197.753906 
178.222656 -715.332031 197.753906 
158.691406 -695.800781 173.339844 
158.691406 -690.917969 173.339844 
163.574219 -690.917969 173.339844 
158.691406 -686.035156 173.339844 
163.574219 -686.035156 173.339844 
158.691406 -676.269531 168.457031 
158.691406 -681.152344 173.339844 
163.574219 -681.152344 173.339844 
158.691406 -676.269531 173.339844 
163.574219 -676.269531 173.339844 
168.457031 -681.152344 173.339844 
168.457031 -676.269531 173.339844 
158.691406 -671.386719 168.457031 
163.574219 -671.386719 168.457031 
158.691406 -666.503906 168.457031 
158.691406 -671.386719 173.339844 
163.574219 -666.503906 168.457031 
163.574219 -671.386719 173.339844 
158.691406 -666.503906 173.339844 
163.574219 -666.503906 173.339844 
168.457031 -671.386719 173.339844 
168.457031 -666.503906 173.339844 
158.691406 -700.683594 178.222656 
163.574219 -700.683594 178.222656 
158.691406 -695.800781 178.222656 
158.691406 -700.683594 183.105469 
163.574219 -695.800781 178.222656 
163.574219 -700.683594 183.105469 
158.691406 -695.800781 183.105469 
163.574219 -695.800781 183.105469 
168.457031 -695.800781 178.222656 
168.457031 -700.683594 183.105469 
173.339844 -700.683594 183.105469 
168.457031 -695.800781 183.105469 
173.339844 -695.800781 183.105469 
158.691406 -690.917969 178.222656 
163.574219 -690.917969 178.222656 
158.691406 -686.035156 178.222656 
158.691406 -690.917969 183.105469 
163.574219 -686.035156 178.222656 
163.574219 -690.917969 183.105469 
158.691406 -686.035156 183.105469 
163.574219 -686.035156 183.105469 
163.574219 -695.800781 187.988281 
168.457031 -690.917969 178.222656 
168.457031 -686.035156 178.222656 
168.457031 -690.917969 183.105469 
173.339844 -686.035156 178.222656 
173.339844 -690.917969 183.105469 
168.457031 -686.035156 183.105469 
173.339844 -686.035156 183.105469 
168.457031 -700.683594 187.988281 
173.339844 -700.683594 187.988281 
168.457031 -695.800781 187.988281 
173.339844 -695.800781 187.988281 
163.574219 -690.917969 187.988281 
163.574219 -686.035156 187.988281 
168.457031 -690.917969 187.988281 
173.339844 -690.917969 187.988281 
168.457031 -686.035156 187.988281 
173.339844 -686.035156 187.988281 
178.222656 -690.917969 183.105469 
178.222656 -686.035156 183.105469 
178.222656 -700.683594 187.988281 
178.222656 -695.800781 187.988281 
183.105469 -695.800781 187.988281 
178.222656 -690.917969 187.988281 
183.105469 -690.917969 187.988281 
178.222656 -686.035156 187.988281 
183.105469 -686.035156 187.988281 
183.105469 -686.035156 192.871094 
158.691406 -681.152344 178.222656 
163.574219 -681.152344 178.222656 
158.691406 -676.269531 178.222656 
158.691406 -681.152344 183.105469 
163.574219 -676.269531 178.222656 
163.574219 -681.152344 183.105469 
158.691406 -676.269531 183.105469 
163.574219 -676.269531 183.105469 
168.457031 -681.152344 178.222656 
173.339844 -681.152344 178.222656 
168.457031 -676.269531 178.222656 
168.457031 -681.152344 183.105469 
173.339844 -676.269531 178.222656 
173.339844 -681.152344 183.105469 
168.457031 -676.269531 183.105469 
173.339844 -676.269531 183.105469 
158.691406 -671.386719 178.222656 
163.574219 -671.386719 178.222656 
158.691406 -666.503906 178.222656 
158.691406 -671.386719 183.105469 
163.574219 -666.503906 178.222656 
163.574219 -671.386719 183.105469 
158.691406 -666.503906 183.105469 
163.574219 -666.503906 183.105469 
163.574219 -681.152344 187.988281 
158.691406 -676.269531 187.988281 
163.574219 -676.269531 187.988281 
168.457031 -671.386719 178.222656 
173.339844 -671.386719 178.222656 
168.457031 -666.503906 178.222656 
168.457031 -671.386719 183.105469 
173.339844 -666.503906 178.222656 
173.339844 -671.386719 183.105469 
168.457031 -666.503906 183.105469 
173.339844 -666.503906 183.105469 
168.457031 -681.152344 187.988281 
173.339844 -681.152344 187.988281 
168.457031 -676.269531 187.988281 
173.339844 -676.269531 187.988281 
163.574219 -671.386719 187.988281 
163.574219 -666.503906 187.988281 
168.457031 -671.386719 187.988281 
173.339844 -671.386719 187.988281 
168.457031 -666.503906 187.988281 
173.339844 -666.503906 187.988281 
178.222656 -676.269531 178.222656 
178.222656 -681.152344 183.105469 
183.105469 -681.152344 183.105469 
178.222656 -676.269531 183.105469 
183.105469 -676.269531 183.105469 
178.222656 -671.386719 178.222656 
178.222656 -666.503906 178.222656 
178.222656 -671.386719 183.105469 
183.105469 -671.386719 183.105469 
178.222656 -666.503906 183.105469 
183.105469 -666.503906 183.105469 
178.222656 -681.152344 187.988281 
183.105469 -681.152344 187.988281 
178.222656 -676.269531 187.988281 
183.105469 -676.269531 187.988281 
183.105469 -676.269531 192.871094 
178.222656 -671.386719 187.988281 
183.105469 -671.386719 187.988281 
178.222656 -666.503906 187.988281 
183.105469 -666.503906 187.988281 
183.105469 -671.386719 192.871094 
183.105469 -666.503906 192.871094 
187.988281 -666.503906 192.871094 
158.691406 -651.855469 163.574219 
158.691406 -646.972656 163.574219 
158.691406 -661.621094 168.457031 
163.574219 -661.621094 168.457031 
158.691406 -656.738281 168.457031 
158.691406 -661.621094 173.339844 
163.574219 -656.738281 168.457031 
163.574219 -661.621094 173.339844 
158.691406 -656.738281 173.339844 
163.574219 -656.738281 173.339844 
168.457031 -661.621094 173.339844 
168.457031 -656.738281 173.339844 
173.339844 -656.738281 173.339844 
158.691406 -651.855469 168.457031 
163.574219 -651.855469 168.457031 
158.691406 -646.972656 168.457031 
158.691406 -651.855469 173.339844 
163.574219 -646.972656 168.457031 
163.574219 -651.855469 173.339844 
158.691406 -646.972656 173.339844 
163.574219 -646.972656 173.339844 
168.457031 -646.972656 168.457031 
168.457031 -651.855469 173.339844 
173.339844 -651.855469 173.339844 
168.457031 -646.972656 173.339844 
173.339844 -646.972656 173.339844 
178.222656 -646.972656 173.339844 
158.691406 -642.089844 163.574219 
163.574219 -642.089844 163.574219 
158.691406 -637.207031 163.574219 
163.574219 -637.207031 163.574219 
158.691406 -632.324219 158.691406 
158.691406 -627.441406 158.691406 
158.691406 -632.324219 163.574219 
163.574219 -632.324219 163.574219 
158.691406 -627.441406 163.574219 
163.574219 -627.441406 163.574219 
158.691406 -642.089844 168.457031 
163.574219 -642.089844 168.457031 
158.691406 -637.207031 168.457031 
158.691406 -642.089844 173.339844 
163.574219 -637.207031 168.457031 
163.574219 -642.089844 173.339844 
163.574219 -637.207031 173.339844 
168.457031 -642.089844 168.457031 
168.457031 -637.207031 168.457031 
168.457031 -642.089844 173.339844 
173.339844 -637.207031 168.457031 
173.339844 -642.089844 173.339844 
168.457031 -637.207031 173.339844 
173.339844 -637.207031 173.339844 
158.691406 -632.324219 168.457031 
163.574219 -632.324219 168.457031 
163.574219 -627.441406 168.457031 
163.574219 -632.324219 173.339844 
168.457031 -632.324219 168.457031 
168.457031 -627.441406 168.457031 
168.457031 -632.324219 173.339844 
173.339844 -627.441406 168.457031 
173.339844 -632.324219 173.339844 
168.457031 -627.441406 173.339844 
173.339844 -627.441406 173.339844 
158.691406 -661.621094 178.222656 
163.574219 -661.621094 178.222656 
158.691406 -656.738281 178.222656 
158.691406 -661.621094 183.105469 
163.574219 -656.738281 178.222656 
163.574219 -661.621094 183.105469 
163.574219 -656.738281 183.105469 
168.457031 -661.621094 178.222656 
173.339844 -661.621094 178.222656 
168.457031 -656.738281 178.222656 
168.457031 -661.621094 183.105469 
173.339844 -656.738281 178.222656 
173.339844 -661.621094 183.105469 
168.457031 -656.738281 183.105469 
173.339844 -656.738281 183.105469 
158.691406 -651.855469 178.222656 
163.574219 -651.855469 178.222656 
163.574219 -646.972656 178.222656 
168.457031 -651.855469 178.222656 
173.339844 -651.855469 178.222656 
168.457031 -646.972656 178.222656 
168.457031 -651.855469 183.105469 
173.339844 -646.972656 178.222656 
173.339844 -651.855469 183.105469 
168.457031 -646.972656 183.105469 
173.339844 -646.972656 183.105469 
168.457031 -661.621094 187.988281 
173.339844 -661.621094 187.988281 
168.457031 -656.738281 187.988281 
173.339844 -656.738281 187.988281 
173.339844 -651.855469 187.988281 
173.339844 -646.972656 187.988281 
178.222656 -642.089844 173.339844 
178.222656 -637.207031 173.339844 
178.222656 -632.324219 173.339844 
178.222656 -627.441406 173.339844 
178.222656 -661.621094 178.222656 
178.222656 -656.738281 178.222656 
178.222656 -661.621094 183.105469 
183.105469 -661.621094 183.105469 
178.222656 -656.738281 183.105469 
183.105469 -656.738281 183.105469 
178.222656 -651.855469 178.222656 
178.222656 -646.972656 178.222656 
178.222656 -651.855469 183.105469 
183.105469 -646.972656 178.222656 
183.105469 -651.855469 183.105469 
178.222656 -646.972656 183.105469 
183.105469 -646.972656 183.105469 
178.222656 -661.621094 187.988281 
183.105469 -661.621094 187.988281 
178.222656 -656.738281 187.988281 
183.105469 -656.738281 187.988281 
183.105469 -661.621094 192.871094 
183.105469 -656.738281 192.871094 
187.988281 -661.621094 192.871094 
187.988281 -656.738281 192.871094 
178.222656 -651.855469 187.988281 
183.105469 -651.855469 187.988281 
178.222656 -646.972656 187.988281 
183.105469 -646.972656 187.988281 
183.105469 -651.855469 192.871094 
183.105469 -646.972656 192.871094 
187.988281 -651.855469 187.988281 
187.988281 -646.972656 187.988281 
187.988281 -651.855469 192.871094 
187.988281 -646.972656 192.871094 
168.457031 -642.089844 178.222656 
173.339844 -642.089844 178.222656 
168.457031 -637.207031 178.222656 
173.339844 -637.207031 178.222656 
173.339844 -642.089844 183.105469 
173.339844 -637.207031 183.105469 
168.457031 -632.324219 178.222656 
173.339844 -632.324219 178.222656 
173.339844 -627.441406 178.222656 
178.222656 -642.089844 178.222656 
183.105469 -642.089844 178.222656 
178.222656 -637.207031 178.222656 
178.222656 -642.089844 183.105469 
183.105469 -637.207031 178.222656 
183.105469 -642.089844 183.105469 
178.222656 -637.207031 183.105469 
183.105469 -637.207031 183.105469 
187.988281 -637.207031 183.105469 
178.222656 -632.324219 178.222656 
183.105469 -632.324219 178.222656 
178.222656 -627.441406 178.222656 
178.222656 -632.324219 183.105469 
183.105469 -627.441406 178.222656 
183.105469 -632.324219 183.105469 
178.222656 -627.441406 183.105469 
183.105469 -627.441406 183.105469 
178.222656 -642.089844 187.988281 
183.105469 -642.089844 187.988281 
178.222656 -637.207031 187.988281 
183.105469 -637.207031 187.988281 
183.105469 -642.089844 192.871094 
187.988281 -627.441406 178.222656 
187.988281 -632.324219 183.105469 
187.988281 -627.441406 183.105469 
187.988281 -642.089844 187.988281 
