2.441406
285.644531 -207.519531 319.824219 
290.527344 -207.519531 319.824219 
280.761719 -197.753906 314.941406 
280.761719 -202.636719 319.824219 
280.761719 -197.753906 319.824219 
280.761719 -207.519531 324.707031 
285.644531 -202.636719 314.941406 
290.527344 -202.636719 314.941406 
285.644531 -197.753906 314.941406 
285.644531 -202.636719 319.824219 
290.527344 -197.753906 314.941406 
290.527344 -202.636719 319.824219 
285.644531 -197.753906 319.824219 
290.527344 -197.753906 319.824219 
285.644531 -212.402344 324.707031 
290.527344 -212.402344 324.707031 
285.644531 -207.519531 324.707031 
285.644531 -212.402344 329.589844 
290.527344 -207.519531 324.707031 
290.527344 -212.402344 329.589844 
285.644531 -207.519531 329.589844 
290.527344 -207.519531 329.589844 
280.761719 -202.636719 324.707031 
275.878906 -197.753906 324.707031 
280.761719 -197.753906 324.707031 
280.761719 -202.636719 329.589844 
280.761719 -197.753906 329.589844 
285.644531 -202.636719 324.707031 
290.527344 -202.636719 324.707031 
285.644531 -197.753906 324.707031 
285.644531 -202.636719 329.589844 
290.527344 -197.753906 324.707031 
290.527344 -202.636719 329.589844 
285.644531 -197.753906 329.589844 
290.527344 -197.753906 329.589844 
295.410156 -212.402344 314.941406 
295.410156 -207.519531 314.941406 
295.410156 -212.402344 319.824219 
300.292969 -212.402344 319.824219 
295.410156 -207.519531 319.824219 
300.292969 -207.519531 319.824219 
295.410156 -202.636719 314.941406 
295.410156 -197.753906 314.941406 
295.410156 -202.636719 319.824219 
300.292969 -197.753906 314.941406 
300.292969 -202.636719 319.824219 
295.410156 -197.753906 319.824219 
300.292969 -197.753906 319.824219 
295.410156 -212.402344 324.707031 
300.292969 -212.402344 324.707031 
295.410156 -207.519531 324.707031 
295.410156 -212.402344 329.589844 
300.292969 -207.519531 324.707031 
300.292969 -212.402344 329.589844 
295.410156 -207.519531 329.589844 
300.292969 -207.519531 329.589844 
305.175781 -202.636719 319.824219 
305.175781 -197.753906 319.824219 
305.175781 -212.402344 324.707031 
305.175781 -207.519531 324.707031 
305.175781 -212.402344 329.589844 
310.058594 -212.402344 329.589844 
305.175781 -207.519531 329.589844 
295.410156 -202.636719 324.707031 
300.292969 -202.636719 324.707031 
295.410156 -197.753906 324.707031 
295.410156 -202.636719 329.589844 
300.292969 -197.753906 324.707031 
300.292969 -202.636719 329.589844 
295.410156 -197.753906 329.589844 
300.292969 -197.753906 329.589844 
305.175781 -202.636719 324.707031 
305.175781 -197.753906 324.707031 
295.410156 -231.933594 334.472656 
300.292969 -231.933594 334.472656 
295.410156 -227.050781 334.472656 
300.292969 -227.050781 334.472656 
300.292969 -231.933594 339.355469 
300.292969 -227.050781 339.355469 
305.175781 -231.933594 334.472656 
310.058594 -231.933594 334.472656 
305.175781 -227.050781 334.472656 
305.175781 -231.933594 339.355469 
310.058594 -227.050781 334.472656 
310.058594 -231.933594 339.355469 
305.175781 -227.050781 339.355469 
310.058594 -227.050781 339.355469 
295.410156 -222.167969 334.472656 
300.292969 -222.167969 334.472656 
295.410156 -217.285156 334.472656 
300.292969 -217.285156 334.472656 
300.292969 -222.167969 339.355469 
305.175781 -222.167969 334.472656 
310.058594 -222.167969 334.472656 
305.175781 -217.285156 334.472656 
305.175781 -222.167969 339.355469 
310.058594 -217.285156 334.472656 
310.058594 -222.167969 339.355469 
305.175781 -217.285156 339.355469 
305.175781 -231.933594 344.238281 
310.058594 -231.933594 344.238281 
290.527344 -212.402344 334.472656 
290.527344 -207.519531 334.472656 
290.527344 -202.636719 334.472656 
295.410156 -212.402344 334.472656 
300.292969 -212.402344 334.472656 
295.410156 -207.519531 334.472656 
300.292969 -207.519531 334.472656 
305.175781 -212.402344 334.472656 
295.410156 -202.636719 334.472656 
300.292969 -202.636719 334.472656 
270.996094 -187.988281 319.824219 
270.996094 -183.105469 314.941406 
270.996094 -178.222656 314.941406 
270.996094 -183.105469 319.824219 
270.996094 -178.222656 319.824219 
270.996094 -187.988281 324.707031 
270.996094 -187.988281 329.589844 
270.996094 -183.105469 324.707031 
266.113281 -178.222656 324.707031 
270.996094 -178.222656 324.707031 
270.996094 -183.105469 329.589844 
270.996094 -178.222656 329.589844 
270.996094 -173.339844 314.941406 
266.113281 -168.457031 314.941406 
266.113281 -173.339844 319.824219 
270.996094 -168.457031 314.941406 
270.996094 -173.339844 319.824219 
266.113281 -168.457031 319.824219 
270.996094 -168.457031 319.824219 
261.230469 -163.574219 314.941406 
261.230469 -158.691406 314.941406 
266.113281 -163.574219 314.941406 
270.996094 -163.574219 314.941406 
266.113281 -158.691406 314.941406 
266.113281 -163.574219 319.824219 
270.996094 -158.691406 314.941406 
270.996094 -163.574219 319.824219 
266.113281 -158.691406 319.824219 
270.996094 -158.691406 319.824219 
266.113281 -173.339844 324.707031 
270.996094 -173.339844 324.707031 
270.996094 -168.457031 324.707031 
270.996094 -173.339844 329.589844 
270.996094 -163.574219 324.707031 
275.878906 -192.871094 314.941406 
280.761719 -192.871094 314.941406 
275.878906 -187.988281 314.941406 
275.878906 -192.871094 319.824219 
280.761719 -187.988281 314.941406 
280.761719 -192.871094 319.824219 
275.878906 -187.988281 319.824219 
280.761719 -187.988281 319.824219 
285.644531 -192.871094 314.941406 
290.527344 -192.871094 314.941406 
285.644531 -187.988281 314.941406 
285.644531 -192.871094 319.824219 
290.527344 -187.988281 314.941406 
290.527344 -192.871094 319.824219 
285.644531 -187.988281 319.824219 
290.527344 -187.988281 319.824219 
275.878906 -183.105469 314.941406 
280.761719 -183.105469 314.941406 
275.878906 -178.222656 314.941406 
275.878906 -183.105469 319.824219 
280.761719 -178.222656 314.941406 
280.761719 -183.105469 319.824219 
275.878906 -178.222656 319.824219 
280.761719 -178.222656 319.824219 
275.878906 -192.871094 324.707031 
280.761719 -192.871094 324.707031 
275.878906 -187.988281 324.707031 
275.878906 -192.871094 329.589844 
280.761719 -187.988281 324.707031 
280.761719 -192.871094 329.589844 
275.878906 -187.988281 329.589844 
280.761719 -187.988281 329.589844 
285.644531 -183.105469 314.941406 
290.527344 -183.105469 314.941406 
285.644531 -178.222656 314.941406 
285.644531 -183.105469 319.824219 
290.527344 -178.222656 314.941406 
290.527344 -183.105469 319.824219 
285.644531 -178.222656 319.824219 
290.527344 -178.222656 319.824219 
285.644531 -192.871094 324.707031 
290.527344 -192.871094 324.707031 
285.644531 -187.988281 324.707031 
285.644531 -192.871094 329.589844 
290.527344 -187.988281 324.707031 
290.527344 -192.871094 329.589844 
285.644531 -187.988281 329.589844 
275.878906 -183.105469 324.707031 
280.761719 -183.105469 324.707031 
275.878906 -178.222656 324.707031 
275.878906 -183.105469 329.589844 
280.761719 -178.222656 324.707031 
280.761719 -183.105469 329.589844 
275.878906 -178.222656 329.589844 
280.761719 -178.222656 329.589844 
285.644531 -183.105469 324.707031 
290.527344 -183.105469 324.707031 
285.644531 -178.222656 324.707031 
295.410156 -192.871094 314.941406 
300.292969 -192.871094 314.941406 
295.410156 -187.988281 314.941406 
295.410156 -192.871094 319.824219 
300.292969 -187.988281 314.941406 
300.292969 -192.871094 319.824219 
295.410156 -187.988281 319.824219 
300.292969 -187.988281 319.824219 
305.175781 -192.871094 319.824219 
295.410156 -183.105469 314.941406 
300.292969 -183.105469 314.941406 
295.410156 -178.222656 314.941406 
295.410156 -183.105469 319.824219 
295.410156 -192.871094 324.707031 
300.292969 -192.871094 324.707031 
295.410156 -187.988281 324.707031 
295.410156 -192.871094 329.589844 
275.878906 -173.339844 314.941406 
280.761719 -173.339844 314.941406 
275.878906 -168.457031 314.941406 
275.878906 -173.339844 319.824219 
280.761719 -168.457031 314.941406 
280.761719 -173.339844 319.824219 
275.878906 -168.457031 319.824219 
280.761719 -168.457031 319.824219 
285.644531 -173.339844 314.941406 
290.527344 -173.339844 314.941406 
285.644531 -168.457031 314.941406 
285.644531 -173.339844 319.824219 
290.527344 -168.457031 314.941406 
285.644531 -168.457031 319.824219 
275.878906 -163.574219 314.941406 
280.761719 -163.574219 314.941406 
275.878906 -158.691406 314.941406 
275.878906 -163.574219 319.824219 
280.761719 -158.691406 314.941406 
280.761719 -163.574219 319.824219 
275.878906 -158.691406 319.824219 
280.761719 -158.691406 319.824219 
275.878906 -173.339844 324.707031 
280.761719 -173.339844 324.707031 
275.878906 -168.457031 324.707031 
275.878906 -173.339844 329.589844 
280.761719 -168.457031 324.707031 
285.644531 -163.574219 314.941406 
285.644531 -158.691406 314.941406 
275.878906 -163.574219 324.707031 
290.527344 -192.871094 334.472656 
261.230469 -148.925781 314.941406 
266.113281 -153.808594 314.941406 
270.996094 -153.808594 314.941406 
266.113281 -148.925781 314.941406 
270.996094 -148.925781 314.941406 
270.996094 -153.808594 319.824219 
261.230469 -144.042969 314.941406 
266.113281 -144.042969 314.941406 
270.996094 -144.042969 314.941406 
270.996094 -139.160156 314.941406 
275.878906 -153.808594 314.941406 
280.761719 -153.808594 314.941406 
275.878906 -148.925781 314.941406 
275.878906 -153.808594 319.824219 
329.589844 -295.410156 349.121094 
334.472656 -300.292969 349.121094 
319.824219 -290.527344 349.121094 
314.941406 -285.644531 349.121094 
319.824219 -285.644531 349.121094 
324.707031 -285.644531 344.238281 
324.707031 -290.527344 349.121094 
329.589844 -290.527344 349.121094 
324.707031 -285.644531 349.121094 
329.589844 -285.644531 349.121094 
319.824219 -280.761719 344.238281 
314.941406 -275.878906 344.238281 
314.941406 -280.761719 349.121094 
319.824219 -275.878906 344.238281 
319.824219 -280.761719 349.121094 
314.941406 -275.878906 349.121094 
319.824219 -275.878906 349.121094 
324.707031 -280.761719 344.238281 
324.707031 -275.878906 344.238281 
324.707031 -280.761719 349.121094 
329.589844 -280.761719 349.121094 
324.707031 -275.878906 349.121094 
329.589844 -275.878906 349.121094 
334.472656 -290.527344 349.121094 
319.824219 -270.996094 339.355469 
314.941406 -266.113281 339.355469 
319.824219 -266.113281 339.355469 
314.941406 -261.230469 334.472656 
314.941406 -256.347656 334.472656 
314.941406 -261.230469 339.355469 
319.824219 -261.230469 339.355469 
314.941406 -256.347656 339.355469 
319.824219 -256.347656 339.355469 
314.941406 -270.996094 344.238281 
319.824219 -270.996094 344.238281 
314.941406 -266.113281 344.238281 
314.941406 -270.996094 349.121094 
319.824219 -266.113281 344.238281 
319.824219 -270.996094 349.121094 
314.941406 -266.113281 349.121094 
319.824219 -266.113281 349.121094 
324.707031 -270.996094 344.238281 
329.589844 -270.996094 344.238281 
324.707031 -266.113281 344.238281 
324.707031 -270.996094 349.121094 
329.589844 -270.996094 349.121094 
324.707031 -266.113281 349.121094 
329.589844 -266.113281 349.121094 
314.941406 -261.230469 344.238281 
319.824219 -261.230469 344.238281 
314.941406 -256.347656 344.238281 
314.941406 -261.230469 349.121094 
319.824219 -256.347656 344.238281 
319.824219 -261.230469 349.121094 
314.941406 -256.347656 349.121094 
319.824219 -256.347656 349.121094 
324.707031 -261.230469 344.238281 
324.707031 -261.230469 349.121094 
324.707031 -256.347656 349.121094 
314.941406 -251.464844 334.472656 
314.941406 -246.582031 334.472656 
314.941406 -251.464844 339.355469 
319.824219 -251.464844 339.355469 
314.941406 -246.582031 339.355469 
314.941406 -241.699219 334.472656 
314.941406 -236.816406 334.472656 
314.941406 -241.699219 339.355469 
314.941406 -236.816406 339.355469 
314.941406 -251.464844 344.238281 
319.824219 -251.464844 344.238281 
314.941406 -246.582031 344.238281 
314.941406 -251.464844 349.121094 
319.824219 -246.582031 344.238281 
319.824219 -251.464844 349.121094 
314.941406 -246.582031 349.121094 
314.941406 -241.699219 344.238281 
314.941406 -236.816406 344.238281 
314.941406 -241.699219 349.121094 
329.589844 -300.292969 354.003906 
324.707031 -295.410156 354.003906 
329.589844 -295.410156 354.003906 
329.589844 -300.292969 358.886719 
324.707031 -295.410156 358.886719 
329.589844 -295.410156 358.886719 
329.589844 -300.292969 363.769531 
324.707031 -295.410156 363.769531 
329.589844 -295.410156 363.769531 
329.589844 -300.292969 368.652344 
324.707031 -295.410156 368.652344 
329.589844 -295.410156 368.652344 
339.355469 -310.058594 354.003906 
334.472656 -305.175781 354.003906 
339.355469 -305.175781 354.003906 
339.355469 -310.058594 358.886719 
334.472656 -305.175781 358.886719 
339.355469 -305.175781 358.886719 
344.238281 -310.058594 354.003906 
344.238281 -310.058594 358.886719 
349.121094 -310.058594 358.886719 
344.238281 -305.175781 358.886719 
334.472656 -300.292969 354.003906 
339.355469 -300.292969 354.003906 
334.472656 -295.410156 354.003906 
334.472656 -300.292969 358.886719 
339.355469 -295.410156 354.003906 
339.355469 -300.292969 358.886719 
334.472656 -295.410156 358.886719 
339.355469 -295.410156 358.886719 
339.355469 -310.058594 363.769531 
334.472656 -305.175781 363.769531 
339.355469 -305.175781 363.769531 
339.355469 -310.058594 368.652344 
334.472656 -305.175781 368.652344 
339.355469 -305.175781 368.652344 
344.238281 -300.292969 358.886719 
344.238281 -295.410156 358.886719 
344.238281 -310.058594 363.769531 
349.121094 -310.058594 363.769531 
344.238281 -305.175781 363.769531 
344.238281 -310.058594 368.652344 
349.121094 -305.175781 363.769531 
349.121094 -310.058594 368.652344 
344.238281 -305.175781 368.652344 
349.121094 -305.175781 368.652344 
334.472656 -300.292969 363.769531 
339.355469 -300.292969 363.769531 
334.472656 -295.410156 363.769531 
334.472656 -300.292969 368.652344 
339.355469 -295.410156 363.769531 
339.355469 -300.292969 368.652344 
334.472656 -295.410156 368.652344 
339.355469 -295.410156 368.652344 
344.238281 -300.292969 363.769531 
349.121094 -300.292969 363.769531 
344.238281 -295.410156 363.769531 
344.238281 -300.292969 368.652344 
349.121094 -295.410156 363.769531 
349.121094 -300.292969 368.652344 
344.238281 -295.410156 368.652344 
349.121094 -295.410156 368.652344 
314.941406 -290.527344 354.003906 
319.824219 -290.527344 354.003906 
314.941406 -285.644531 354.003906 
319.824219 -285.644531 354.003906 
319.824219 -290.527344 358.886719 
314.941406 -285.644531 358.886719 
319.824219 -285.644531 358.886719 
324.707031 -290.527344 354.003906 
329.589844 -290.527344 354.003906 
324.707031 -285.644531 354.003906 
324.707031 -290.527344 358.886719 
329.589844 -285.644531 354.003906 
329.589844 -290.527344 358.886719 
324.707031 -285.644531 358.886719 
329.589844 -285.644531 358.886719 
314.941406 -280.761719 354.003906 
319.824219 -280.761719 354.003906 
314.941406 -275.878906 354.003906 
314.941406 -280.761719 358.886719 
319.824219 -275.878906 354.003906 
319.824219 -280.761719 358.886719 
314.941406 -275.878906 358.886719 
319.824219 -275.878906 358.886719 
319.824219 -290.527344 363.769531 
314.941406 -285.644531 363.769531 
314.941406 -290.527344 368.652344 
319.824219 -285.644531 363.769531 
319.824219 -290.527344 368.652344 
324.707031 -280.761719 354.003906 
329.589844 -280.761719 354.003906 
324.707031 -275.878906 354.003906 
324.707031 -280.761719 358.886719 
329.589844 -275.878906 354.003906 
329.589844 -280.761719 358.886719 
324.707031 -275.878906 358.886719 
329.589844 -275.878906 358.886719 
324.707031 -290.527344 363.769531 
329.589844 -290.527344 363.769531 
324.707031 -285.644531 363.769531 
324.707031 -290.527344 368.652344 
329.589844 -285.644531 363.769531 
329.589844 -290.527344 368.652344 
314.941406 -280.761719 363.769531 
319.824219 -280.761719 363.769531 
314.941406 -275.878906 363.769531 
319.824219 -275.878906 363.769531 
324.707031 -280.761719 363.769531 
329.589844 -280.761719 363.769531 
324.707031 -275.878906 363.769531 
329.589844 -275.878906 363.769531 
329.589844 -300.292969 373.535156 
324.707031 -295.410156 373.535156 
329.589844 -295.410156 373.535156 
334.472656 -290.527344 354.003906 
339.355469 -290.527344 354.003906 
334.472656 -285.644531 354.003906 
334.472656 -290.527344 358.886719 
339.355469 -285.644531 354.003906 
339.355469 -290.527344 358.886719 
334.472656 -285.644531 358.886719 
339.355469 -285.644531 358.886719 
344.238281 -290.527344 358.886719 
344.238281 -285.644531 358.886719 
334.472656 -280.761719 354.003906 
334.472656 -275.878906 354.003906 
334.472656 -280.761719 358.886719 
339.355469 -280.761719 358.886719 
334.472656 -275.878906 358.886719 
334.472656 -290.527344 363.769531 
339.355469 -290.527344 363.769531 
334.472656 -285.644531 363.769531 
334.472656 -290.527344 368.652344 
339.355469 -285.644531 363.769531 
339.355469 -290.527344 368.652344 
334.472656 -285.644531 368.652344 
339.355469 -285.644531 368.652344 
344.238281 -290.527344 363.769531 
349.121094 -290.527344 363.769531 
344.238281 -285.644531 363.769531 
344.238281 -290.527344 368.652344 
349.121094 -290.527344 368.652344 
334.472656 -280.761719 363.769531 
339.355469 -280.761719 363.769531 
334.472656 -280.761719 368.652344 
339.355469 -310.058594 373.535156 
334.472656 -305.175781 373.535156 
339.355469 -305.175781 373.535156 
334.472656 -305.175781 378.417969 
339.355469 -305.175781 378.417969 
344.238281 -310.058594 373.535156 
349.121094 -310.058594 373.535156 
344.238281 -305.175781 373.535156 
344.238281 -310.058594 378.417969 
349.121094 -305.175781 373.535156 
349.121094 -310.058594 378.417969 
344.238281 -305.175781 378.417969 
349.121094 -305.175781 378.417969 
334.472656 -300.292969 373.535156 
339.355469 -300.292969 373.535156 
334.472656 -295.410156 373.535156 
334.472656 -300.292969 378.417969 
339.355469 -295.410156 373.535156 
339.355469 -300.292969 378.417969 
344.238281 -300.292969 373.535156 
349.121094 -300.292969 373.535156 
344.238281 -295.410156 373.535156 
344.238281 -300.292969 378.417969 
349.121094 -295.410156 373.535156 
349.121094 -300.292969 378.417969 
344.238281 -310.058594 383.300781 
349.121094 -310.058594 383.300781 
349.121094 -305.175781 383.300781 
334.472656 -290.527344 373.535156 
339.355469 -290.527344 373.535156 
354.003906 -310.058594 363.769531 
354.003906 -310.058594 368.652344 
358.886719 -310.058594 368.652344 
354.003906 -305.175781 368.652344 
358.886719 -305.175781 368.652344 
354.003906 -300.292969 368.652344 
354.003906 -295.410156 368.652344 
354.003906 -310.058594 373.535156 
358.886719 -310.058594 373.535156 
354.003906 -305.175781 373.535156 
354.003906 -310.058594 378.417969 
358.886719 -305.175781 373.535156 
358.886719 -310.058594 378.417969 
354.003906 -305.175781 378.417969 
363.769531 -310.058594 373.535156 
354.003906 -300.292969 373.535156 
354.003906 -310.058594 383.300781 
314.941406 -270.996094 354.003906 
319.824219 -270.996094 354.003906 
314.941406 -266.113281 354.003906 
314.941406 -270.996094 358.886719 
319.824219 -266.113281 354.003906 
319.824219 -270.996094 358.886719 
314.941406 -266.113281 358.886719 
319.824219 -266.113281 358.886719 
324.707031 -270.996094 354.003906 
329.589844 -270.996094 354.003906 
324.707031 -266.113281 354.003906 
324.707031 -270.996094 358.886719 
329.589844 -266.113281 354.003906 
329.589844 -270.996094 358.886719 
314.941406 -261.230469 354.003906 
319.824219 -261.230469 354.003906 
314.941406 -256.347656 354.003906 
314.941406 -261.230469 358.886719 
319.824219 -256.347656 354.003906 
314.941406 -270.996094 363.769531 
319.824219 -270.996094 363.769531 
314.941406 -251.464844 354.003906 
319.824219 -251.464844 354.003906 
314.941406 -246.582031 354.003906 
314.941406 -231.933594 339.355469 
314.941406 -231.933594 344.238281 
466.308594 -822.753906 632.324219 
456.542969 -817.871094 627.441406 
461.425781 -817.871094 627.441406 
466.308594 -817.871094 627.441406 
466.308594 -817.871094 632.324219 
471.191406 -822.753906 627.441406 
476.074219 -822.753906 627.441406 
471.191406 -822.753906 632.324219 
476.074219 -822.753906 632.324219 
480.957031 -822.753906 627.441406 
485.839844 -822.753906 627.441406 
480.957031 -822.753906 632.324219 
485.839844 -822.753906 632.324219 
471.191406 -822.753906 637.207031 
476.074219 -822.753906 637.207031 
480.957031 -822.753906 637.207031 
485.839844 -822.753906 637.207031 
480.957031 -822.753906 642.089844 
485.839844 -822.753906 642.089844 
490.722656 -827.636719 627.441406 
490.722656 -822.753906 627.441406 
490.722656 -827.636719 632.324219 
495.605469 -822.753906 627.441406 
495.605469 -827.636719 632.324219 
490.722656 -822.753906 632.324219 
495.605469 -822.753906 632.324219 
500.488281 -822.753906 627.441406 
500.488281 -827.636719 632.324219 
505.371094 -822.753906 627.441406 
505.371094 -827.636719 632.324219 
500.488281 -822.753906 632.324219 
505.371094 -822.753906 632.324219 
490.722656 -827.636719 637.207031 
495.605469 -827.636719 637.207031 
490.722656 -822.753906 637.207031 
495.605469 -822.753906 637.207031 
490.722656 -822.753906 642.089844 
495.605469 -822.753906 642.089844 
500.488281 -827.636719 637.207031 
505.371094 -827.636719 637.207031 
500.488281 -822.753906 637.207031 
500.488281 -827.636719 642.089844 
505.371094 -822.753906 637.207031 
505.371094 -827.636719 642.089844 
500.488281 -822.753906 642.089844 
505.371094 -822.753906 642.089844 
485.839844 -822.753906 646.972656 
490.722656 -822.753906 646.972656 
495.605469 -822.753906 646.972656 
490.722656 -822.753906 651.855469 
495.605469 -822.753906 651.855469 
505.371094 -827.636719 646.972656 
500.488281 -822.753906 646.972656 
505.371094 -822.753906 646.972656 
500.488281 -822.753906 651.855469 
505.371094 -822.753906 651.855469 
495.605469 -822.753906 656.738281 
500.488281 -822.753906 656.738281 
505.371094 -822.753906 656.738281 
505.371094 -822.753906 661.621094 
510.253906 -827.636719 637.207031 
510.253906 -827.636719 642.089844 
510.253906 -822.753906 642.089844 
510.253906 -827.636719 646.972656 
510.253906 -822.753906 646.972656 
510.253906 -827.636719 651.855469 
515.136719 -827.636719 651.855469 
510.253906 -822.753906 651.855469 
515.136719 -827.636719 656.738281 
510.253906 -822.753906 656.738281 
515.136719 -822.753906 656.738281 
510.253906 -822.753906 661.621094 
515.136719 -822.753906 661.621094 
471.191406 -817.871094 627.441406 
476.074219 -817.871094 627.441406 
471.191406 -817.871094 632.324219 
476.074219 -812.988281 627.441406 
476.074219 -817.871094 632.324219 
480.957031 -817.871094 627.441406 
485.839844 -817.871094 627.441406 
480.957031 -812.988281 627.441406 
480.957031 -817.871094 632.324219 
485.839844 -812.988281 627.441406 
485.839844 -817.871094 632.324219 
485.839844 -812.988281 632.324219 
471.191406 -817.871094 637.207031 
476.074219 -817.871094 637.207031 
476.074219 -817.871094 642.089844 
480.957031 -817.871094 637.207031 
485.839844 -817.871094 637.207031 
480.957031 -817.871094 642.089844 
485.839844 -817.871094 642.089844 
490.722656 -817.871094 627.441406 
495.605469 -817.871094 627.441406 
490.722656 -812.988281 627.441406 
490.722656 -817.871094 632.324219 
495.605469 -812.988281 627.441406 
495.605469 -817.871094 632.324219 
490.722656 -812.988281 632.324219 
495.605469 -812.988281 632.324219 
500.488281 -817.871094 627.441406 
505.371094 -817.871094 627.441406 
500.488281 -812.988281 627.441406 
500.488281 -817.871094 632.324219 
505.371094 -817.871094 632.324219 
500.488281 -812.988281 632.324219 
505.371094 -812.988281 632.324219 
490.722656 -817.871094 637.207031 
495.605469 -817.871094 637.207031 
490.722656 -817.871094 642.089844 
495.605469 -812.988281 637.207031 
495.605469 -817.871094 642.089844 
500.488281 -817.871094 637.207031 
505.371094 -817.871094 637.207031 
500.488281 -812.988281 637.207031 
500.488281 -817.871094 642.089844 
505.371094 -812.988281 637.207031 
505.371094 -817.871094 642.089844 
505.371094 -812.988281 642.089844 
480.957031 -817.871094 646.972656 
485.839844 -817.871094 646.972656 
490.722656 -817.871094 646.972656 
495.605469 -817.871094 646.972656 
490.722656 -817.871094 651.855469 
495.605469 -817.871094 651.855469 
500.488281 -817.871094 646.972656 
505.371094 -817.871094 646.972656 
500.488281 -817.871094 651.855469 
505.371094 -817.871094 651.855469 
505.371094 -817.871094 656.738281 
510.253906 -817.871094 642.089844 
520.019531 -808.105469 627.441406 
524.902344 -808.105469 627.441406 
529.785156 -812.988281 627.441406 
534.667969 -812.988281 627.441406 
529.785156 -812.988281 632.324219 
534.667969 -812.988281 632.324219 
539.550781 -812.988281 627.441406 
544.433594 -812.988281 627.441406 
544.433594 -817.871094 632.324219 
539.550781 -812.988281 632.324219 
544.433594 -812.988281 632.324219 
529.785156 -808.105469 627.441406 
534.667969 -808.105469 627.441406 
529.785156 -808.105469 632.324219 
534.667969 -808.105469 632.324219 
529.785156 -812.988281 637.207031 
534.667969 -812.988281 637.207031 
529.785156 -812.988281 642.089844 
534.667969 -812.988281 642.089844 
539.550781 -808.105469 627.441406 
544.433594 -808.105469 627.441406 
539.550781 -808.105469 632.324219 
544.433594 -808.105469 632.324219 
539.550781 -817.871094 637.207031 
544.433594 -817.871094 637.207031 
539.550781 -812.988281 637.207031 
544.433594 -812.988281 637.207031 
544.433594 -817.871094 642.089844 
539.550781 -812.988281 642.089844 
544.433594 -812.988281 642.089844 
539.550781 -808.105469 637.207031 
544.433594 -808.105469 637.207031 
510.253906 -817.871094 646.972656 
510.253906 -817.871094 651.855469 
510.253906 -817.871094 656.738281 
515.136719 -817.871094 656.738281 
529.785156 -812.988281 646.972656 
534.667969 -812.988281 646.972656 
534.667969 -812.988281 651.855469 
544.433594 -817.871094 646.972656 
539.550781 -812.988281 646.972656 
544.433594 -812.988281 646.972656 
544.433594 -817.871094 651.855469 
539.550781 -812.988281 651.855469 
544.433594 -812.988281 651.855469 
544.433594 -817.871094 656.738281 
539.550781 -812.988281 656.738281 
544.433594 -812.988281 656.738281 
544.433594 -817.871094 661.621094 
510.253906 -822.753906 666.503906 
515.136719 -822.753906 666.503906 
549.316406 -812.988281 627.441406 
554.199219 -812.988281 627.441406 
549.316406 -812.988281 632.324219 
554.199219 -812.988281 632.324219 
559.082031 -812.988281 627.441406 
559.082031 -812.988281 632.324219 
563.964844 -812.988281 632.324219 
549.316406 -808.105469 627.441406 
554.199219 -808.105469 627.441406 
549.316406 -808.105469 632.324219 
554.199219 -808.105469 632.324219 
549.316406 -817.871094 637.207031 
549.316406 -812.988281 637.207031 
549.316406 -817.871094 642.089844 
554.199219 -812.988281 637.207031 
554.199219 -817.871094 642.089844 
549.316406 -812.988281 642.089844 
554.199219 -812.988281 642.089844 
559.082031 -808.105469 627.441406 
563.964844 -808.105469 627.441406 
559.082031 -803.222656 627.441406 
559.082031 -808.105469 632.324219 
563.964844 -803.222656 627.441406 
563.964844 -808.105469 632.324219 
559.082031 -812.988281 637.207031 
563.964844 -812.988281 637.207031 
559.082031 -812.988281 642.089844 
563.964844 -812.988281 642.089844 
549.316406 -808.105469 637.207031 
554.199219 -808.105469 637.207031 
549.316406 -808.105469 642.089844 
554.199219 -808.105469 642.089844 
559.082031 -808.105469 637.207031 
563.964844 -808.105469 637.207031 
559.082031 -808.105469 642.089844 
563.964844 -808.105469 642.089844 
568.847656 -812.988281 632.324219 
568.847656 -808.105469 627.441406 
573.730469 -808.105469 627.441406 
568.847656 -803.222656 627.441406 
568.847656 -808.105469 632.324219 
573.730469 -803.222656 627.441406 
573.730469 -808.105469 632.324219 
568.847656 -812.988281 637.207031 
578.613281 -808.105469 627.441406 
578.613281 -803.222656 627.441406 
578.613281 -808.105469 632.324219 
583.496094 -803.222656 627.441406 
578.613281 -803.222656 632.324219 
583.496094 -803.222656 632.324219 
568.847656 -808.105469 637.207031 
573.730469 -808.105469 637.207031 
568.847656 -808.105469 642.089844 
573.730469 -808.105469 642.089844 
578.613281 -808.105469 637.207031 
578.613281 -803.222656 637.207031 
578.613281 -808.105469 642.089844 
583.496094 -803.222656 637.207031 
549.316406 -817.871094 646.972656 
554.199219 -817.871094 646.972656 
549.316406 -812.988281 646.972656 
549.316406 -817.871094 651.855469 
554.199219 -812.988281 646.972656 
554.199219 -817.871094 651.855469 
549.316406 -812.988281 651.855469 
554.199219 -812.988281 651.855469 
559.082031 -812.988281 646.972656 
559.082031 -817.871094 651.855469 
563.964844 -812.988281 646.972656 
559.082031 -812.988281 651.855469 
563.964844 -812.988281 651.855469 
549.316406 -817.871094 656.738281 
554.199219 -817.871094 656.738281 
549.316406 -812.988281 656.738281 
549.316406 -817.871094 661.621094 
554.199219 -812.988281 656.738281 
554.199219 -817.871094 661.621094 
554.199219 -812.988281 661.621094 
559.082031 -808.105469 646.972656 
563.964844 -808.105469 646.972656 
559.082031 -817.871094 656.738281 
559.082031 -812.988281 656.738281 
559.082031 -817.871094 661.621094 
563.964844 -812.988281 656.738281 
559.082031 -812.988281 661.621094 
563.964844 -812.988281 661.621094 
568.847656 -812.988281 646.972656 
568.847656 -812.988281 651.855469 
568.847656 -808.105469 646.972656 
568.847656 -808.105469 651.855469 
568.847656 -812.988281 656.738281 
568.847656 -812.988281 661.621094 
573.730469 -812.988281 661.621094 
588.378906 -803.222656 627.441406 
588.378906 -803.222656 632.324219 
588.378906 -803.222656 637.207031 
588.378906 -803.222656 642.089844 
593.261719 -803.222656 642.089844 
593.261719 -798.339844 627.441406 
598.144531 -798.339844 627.441406 
554.199219 -817.871094 666.503906 
559.082031 -817.871094 666.503906 
563.964844 -817.871094 666.503906 
559.082031 -817.871094 671.386719 
568.847656 -812.988281 666.503906 
612.792969 -764.160156 739.746094 
622.558594 -769.042969 739.746094 
617.675781 -764.160156 739.746094 
622.558594 -764.160156 739.746094 
607.910156 -759.277344 739.746094 
612.792969 -759.277344 739.746094 
617.675781 -759.277344 739.746094 
617.675781 -769.042969 744.628906 
622.558594 -769.042969 744.628906 
617.675781 -764.160156 744.628906 
622.558594 -764.160156 744.628906 
612.792969 -759.277344 744.628906 
612.792969 -754.394531 744.628906 
617.675781 -759.277344 744.628906 
622.558594 -759.277344 744.628906 
617.675781 -754.394531 744.628906 
617.675781 -759.277344 749.511719 
622.558594 -754.394531 744.628906 
617.675781 -754.394531 749.511719 
622.558594 -754.394531 749.511719 
607.910156 -749.511719 744.628906 
612.792969 -749.511719 744.628906 
607.910156 -744.628906 744.628906 
612.792969 -749.511719 749.511719 
612.792969 -744.628906 749.511719 
617.675781 -749.511719 744.628906 
622.558594 -749.511719 744.628906 
617.675781 -749.511719 749.511719 
622.558594 -749.511719 749.511719 
617.675781 -744.628906 749.511719 
622.558594 -744.628906 749.511719 
612.792969 -744.628906 754.394531 
612.792969 -739.746094 749.511719 
612.792969 -734.863281 749.511719 
617.675781 -739.746094 749.511719 
622.558594 -739.746094 749.511719 
617.675781 -734.863281 749.511719 
622.558594 -734.863281 749.511719 
612.792969 -739.746094 754.394531 
617.675781 -729.980469 754.394531 
627.441406 -480.957031 612.792969 
627.441406 -476.074219 607.910156 
627.441406 -476.074219 612.792969 
632.324219 -476.074219 612.792969 
627.441406 -480.957031 617.675781 
632.324219 -480.957031 617.675781 
627.441406 -476.074219 617.675781 
632.324219 -476.074219 617.675781 
642.089844 -471.191406 622.558594 
627.441406 -769.042969 739.746094 
627.441406 -764.160156 739.746094 
632.324219 -764.160156 739.746094 
627.441406 -759.277344 744.628906 
627.441406 -754.394531 744.628906 
627.441406 -749.511719 744.628906 
632.324219 -749.511719 744.628906 
158.691406 2.441406 153.808594 
163.574219 2.441406 153.808594 
168.457031 2.441406 148.925781 
168.457031 2.441406 153.808594 
173.339844 2.441406 153.808594 
168.457031 7.324219 153.808594 
173.339844 7.324219 153.808594 
158.691406 2.441406 158.691406 
163.574219 2.441406 158.691406 
158.691406 7.324219 158.691406 
158.691406 2.441406 163.574219 
163.574219 7.324219 158.691406 
163.574219 2.441406 163.574219 
158.691406 7.324219 163.574219 
163.574219 7.324219 163.574219 
168.457031 2.441406 158.691406 
173.339844 2.441406 158.691406 
168.457031 7.324219 158.691406 
168.457031 2.441406 163.574219 
173.339844 7.324219 158.691406 
173.339844 2.441406 163.574219 
168.457031 7.324219 163.574219 
173.339844 7.324219 163.574219 
163.574219 12.207031 163.574219 
158.691406 2.441406 168.457031 
163.574219 2.441406 168.457031 
158.691406 7.324219 168.457031 
158.691406 2.441406 173.339844 
163.574219 7.324219 168.457031 
163.574219 2.441406 173.339844 
158.691406 7.324219 173.339844 
163.574219 7.324219 173.339844 
173.339844 12.207031 158.691406 
168.457031 12.207031 163.574219 
173.339844 12.207031 163.574219 
168.457031 2.441406 168.457031 
173.339844 2.441406 168.457031 
168.457031 7.324219 168.457031 
168.457031 2.441406 173.339844 
173.339844 7.324219 168.457031 
173.339844 2.441406 173.339844 
168.457031 7.324219 173.339844 
173.339844 7.324219 173.339844 
158.691406 12.207031 168.457031 
163.574219 12.207031 168.457031 
158.691406 12.207031 173.339844 
163.574219 12.207031 173.339844 
158.691406 17.089844 173.339844 
163.574219 17.089844 173.339844 
168.457031 12.207031 168.457031 
173.339844 12.207031 168.457031 
168.457031 12.207031 173.339844 
173.339844 17.089844 168.457031 
173.339844 12.207031 173.339844 
168.457031 17.089844 173.339844 
173.339844 17.089844 173.339844 
178.222656 2.441406 158.691406 
178.222656 7.324219 158.691406 
178.222656 2.441406 163.574219 
178.222656 7.324219 163.574219 
178.222656 12.207031 163.574219 
178.222656 2.441406 168.457031 
178.222656 7.324219 168.457031 
178.222656 7.324219 173.339844 
178.222656 12.207031 168.457031 
183.105469 12.207031 168.457031 
178.222656 17.089844 168.457031 
178.222656 12.207031 173.339844 
183.105469 12.207031 173.339844 
178.222656 17.089844 173.339844 
183.105469 17.089844 173.339844 
168.457031 21.972656 173.339844 
173.339844 21.972656 173.339844 
158.691406 7.324219 178.222656 
163.574219 7.324219 178.222656 
168.457031 7.324219 178.222656 
173.339844 7.324219 178.222656 
168.457031 7.324219 183.105469 
158.691406 12.207031 178.222656 
163.574219 12.207031 178.222656 
158.691406 17.089844 178.222656 
158.691406 12.207031 183.105469 
163.574219 17.089844 178.222656 
163.574219 12.207031 183.105469 
158.691406 17.089844 183.105469 
163.574219 17.089844 183.105469 
168.457031 12.207031 178.222656 
173.339844 12.207031 178.222656 
168.457031 17.089844 178.222656 
168.457031 12.207031 183.105469 
173.339844 17.089844 178.222656 
173.339844 12.207031 183.105469 
168.457031 17.089844 183.105469 
173.339844 17.089844 183.105469 
163.574219 17.089844 187.988281 
168.457031 12.207031 187.988281 
168.457031 17.089844 187.988281 
173.339844 17.089844 187.988281 
178.222656 21.972656 173.339844 
183.105469 21.972656 173.339844 
178.222656 12.207031 178.222656 
178.222656 17.089844 178.222656 
178.222656 12.207031 183.105469 
183.105469 17.089844 178.222656 
178.222656 17.089844 183.105469 
183.105469 17.089844 183.105469 
178.222656 17.089844 187.988281 
163.574219 21.972656 178.222656 
158.691406 21.972656 183.105469 
163.574219 21.972656 183.105469 
163.574219 26.855469 183.105469 
168.457031 21.972656 178.222656 
173.339844 21.972656 178.222656 
168.457031 26.855469 178.222656 
168.457031 21.972656 183.105469 
173.339844 26.855469 178.222656 
173.339844 21.972656 183.105469 
168.457031 26.855469 183.105469 
173.339844 26.855469 183.105469 
158.691406 21.972656 187.988281 
163.574219 21.972656 187.988281 
158.691406 26.855469 187.988281 
163.574219 26.855469 187.988281 
163.574219 26.855469 192.871094 
168.457031 31.738281 183.105469 
173.339844 31.738281 183.105469 
168.457031 21.972656 187.988281 
173.339844 21.972656 187.988281 
168.457031 26.855469 187.988281 
168.457031 21.972656 192.871094 
173.339844 26.855469 187.988281 
173.339844 21.972656 192.871094 
168.457031 26.855469 192.871094 
173.339844 26.855469 192.871094 
163.574219 31.738281 187.988281 
163.574219 36.621094 187.988281 
163.574219 31.738281 192.871094 
163.574219 36.621094 192.871094 
168.457031 31.738281 187.988281 
173.339844 31.738281 187.988281 
168.457031 36.621094 187.988281 
168.457031 31.738281 192.871094 
173.339844 36.621094 187.988281 
173.339844 31.738281 192.871094 
168.457031 36.621094 192.871094 
173.339844 36.621094 192.871094 
178.222656 21.972656 178.222656 
183.105469 21.972656 178.222656 
178.222656 26.855469 178.222656 
178.222656 21.972656 183.105469 
183.105469 26.855469 178.222656 
183.105469 21.972656 183.105469 
178.222656 26.855469 183.105469 
183.105469 26.855469 183.105469 
187.988281 26.855469 183.105469 
178.222656 31.738281 183.105469 
183.105469 31.738281 183.105469 
178.222656 21.972656 187.988281 
183.105469 21.972656 187.988281 
178.222656 26.855469 187.988281 
178.222656 21.972656 192.871094 
183.105469 26.855469 187.988281 
178.222656 26.855469 192.871094 
183.105469 26.855469 192.871094 
187.988281 26.855469 187.988281 
178.222656 31.738281 187.988281 
183.105469 31.738281 187.988281 
178.222656 36.621094 187.988281 
178.222656 31.738281 192.871094 
183.105469 36.621094 187.988281 
183.105469 31.738281 192.871094 
178.222656 36.621094 192.871094 
183.105469 36.621094 192.871094 
187.988281 31.738281 187.988281 
187.988281 36.621094 187.988281 
187.988281 31.738281 192.871094 
187.988281 36.621094 192.871094 
173.339844 41.503906 187.988281 
168.457031 41.503906 192.871094 
173.339844 41.503906 192.871094 
173.339844 46.386719 192.871094 
178.222656 41.503906 192.871094 
183.105469 41.503906 192.871094 
178.222656 46.386719 192.871094 
183.105469 46.386719 192.871094 
187.988281 41.503906 192.871094 
173.339844 26.855469 197.753906 
168.457031 31.738281 197.753906 
173.339844 31.738281 197.753906 
168.457031 36.621094 197.753906 
173.339844 36.621094 197.753906 
168.457031 36.621094 202.636719 
173.339844 36.621094 202.636719 
178.222656 26.855469 197.753906 
178.222656 31.738281 197.753906 
183.105469 31.738281 197.753906 
178.222656 36.621094 197.753906 
183.105469 36.621094 197.753906 
178.222656 36.621094 202.636719 
183.105469 36.621094 202.636719 
187.988281 36.621094 197.753906 
168.457031 41.503906 197.753906 
173.339844 41.503906 197.753906 
168.457031 46.386719 197.753906 
168.457031 41.503906 202.636719 
173.339844 46.386719 197.753906 
173.339844 41.503906 202.636719 
168.457031 46.386719 202.636719 
173.339844 46.386719 202.636719 
173.339844 51.269531 197.753906 
168.457031 51.269531 202.636719 
173.339844 51.269531 202.636719 
173.339844 56.152344 202.636719 
173.339844 41.503906 207.519531 
168.457031 46.386719 207.519531 
173.339844 46.386719 207.519531 
173.339844 46.386719 212.402344 
168.457031 51.269531 207.519531 
173.339844 51.269531 207.519531 
168.457031 51.269531 212.402344 
173.339844 56.152344 207.519531 
173.339844 51.269531 212.402344 
173.339844 56.152344 212.402344 
178.222656 41.503906 197.753906 
183.105469 41.503906 197.753906 
178.222656 46.386719 197.753906 
178.222656 41.503906 202.636719 
183.105469 46.386719 197.753906 
183.105469 41.503906 202.636719 
178.222656 46.386719 202.636719 
183.105469 46.386719 202.636719 
187.988281 41.503906 197.753906 
187.988281 46.386719 197.753906 
187.988281 41.503906 202.636719 
187.988281 46.386719 202.636719 
178.222656 51.269531 197.753906 
183.105469 51.269531 197.753906 
178.222656 51.269531 202.636719 
183.105469 51.269531 202.636719 
178.222656 56.152344 202.636719 
183.105469 56.152344 202.636719 
178.222656 41.503906 207.519531 
183.105469 41.503906 207.519531 
178.222656 46.386719 207.519531 
183.105469 46.386719 207.519531 
178.222656 46.386719 212.402344 
183.105469 46.386719 212.402344 
187.988281 51.269531 202.636719 
187.988281 56.152344 202.636719 
187.988281 46.386719 207.519531 
178.222656 51.269531 207.519531 
183.105469 51.269531 207.519531 
178.222656 56.152344 207.519531 
178.222656 51.269531 212.402344 
183.105469 56.152344 207.519531 
183.105469 51.269531 212.402344 
178.222656 56.152344 212.402344 
183.105469 56.152344 212.402344 
187.988281 51.269531 207.519531 
187.988281 56.152344 207.519531 
187.988281 51.269531 212.402344 
187.988281 56.152344 212.402344 
173.339844 61.035156 207.519531 
173.339844 61.035156 212.402344 
173.339844 65.917969 212.402344 
173.339844 56.152344 217.285156 
183.105469 61.035156 202.636719 
178.222656 61.035156 207.519531 
183.105469 61.035156 207.519531 
178.222656 61.035156 212.402344 
183.105469 65.917969 207.519531 
183.105469 61.035156 212.402344 
178.222656 65.917969 212.402344 
183.105469 65.917969 212.402344 
187.988281 61.035156 207.519531 
187.988281 61.035156 212.402344 
187.988281 65.917969 212.402344 
183.105469 70.800781 212.402344 
183.105469 51.269531 217.285156 
178.222656 56.152344 217.285156 
183.105469 56.152344 217.285156 
187.988281 56.152344 217.285156 
173.339844 61.035156 217.285156 
173.339844 65.917969 217.285156 
173.339844 61.035156 222.167969 
173.339844 65.917969 222.167969 
173.339844 70.800781 217.285156 
173.339844 70.800781 222.167969 
173.339844 70.800781 227.050781 
173.339844 75.683594 227.050781 
178.222656 61.035156 217.285156 
183.105469 61.035156 217.285156 
178.222656 65.917969 217.285156 
178.222656 61.035156 222.167969 
183.105469 65.917969 217.285156 
183.105469 61.035156 222.167969 
178.222656 65.917969 222.167969 
183.105469 65.917969 222.167969 
187.988281 61.035156 217.285156 
187.988281 65.917969 217.285156 
187.988281 61.035156 222.167969 
192.871094 65.917969 217.285156 
187.988281 65.917969 222.167969 
178.222656 70.800781 217.285156 
183.105469 70.800781 217.285156 
178.222656 75.683594 217.285156 
178.222656 70.800781 222.167969 
183.105469 75.683594 217.285156 
183.105469 70.800781 222.167969 
178.222656 75.683594 222.167969 
183.105469 75.683594 222.167969 
178.222656 65.917969 227.050781 
183.105469 65.917969 227.050781 
187.988281 70.800781 217.285156 
187.988281 70.800781 222.167969 
192.871094 70.800781 222.167969 
187.988281 75.683594 222.167969 
187.988281 65.917969 227.050781 
178.222656 70.800781 227.050781 
183.105469 70.800781 227.050781 
178.222656 75.683594 227.050781 
178.222656 70.800781 231.933594 
183.105469 75.683594 227.050781 
183.105469 70.800781 231.933594 
178.222656 75.683594 231.933594 
183.105469 75.683594 231.933594 
187.988281 70.800781 227.050781 
187.988281 75.683594 227.050781 
187.988281 70.800781 231.933594 
192.871094 75.683594 227.050781 
187.988281 75.683594 231.933594 
192.871094 75.683594 231.933594 
173.339844 80.566406 231.933594 
178.222656 80.566406 222.167969 
183.105469 80.566406 222.167969 
187.988281 80.566406 222.167969 
178.222656 80.566406 227.050781 
183.105469 80.566406 227.050781 
178.222656 85.449219 227.050781 
178.222656 80.566406 231.933594 
183.105469 85.449219 227.050781 
183.105469 80.566406 231.933594 
178.222656 85.449219 231.933594 
183.105469 85.449219 231.933594 
187.988281 80.566406 227.050781 
192.871094 80.566406 227.050781 
187.988281 85.449219 227.050781 
187.988281 80.566406 231.933594 
192.871094 80.566406 231.933594 
187.988281 85.449219 231.933594 
192.871094 85.449219 231.933594 
178.222656 90.332031 231.933594 
183.105469 90.332031 231.933594 
183.105469 95.214844 231.933594 
187.988281 90.332031 227.050781 
187.988281 90.332031 231.933594 
192.871094 90.332031 231.933594 
187.988281 95.214844 231.933594 
202.636719 2.441406 251.464844 
202.636719 7.324219 251.464844 
207.519531 2.441406 251.464844 
212.402344 2.441406 251.464844 
207.519531 7.324219 251.464844 
212.402344 7.324219 251.464844 
207.519531 12.207031 251.464844 
212.402344 12.207031 251.464844 
207.519531 17.089844 251.464844 
212.402344 17.089844 251.464844 
217.285156 2.441406 251.464844 
217.285156 7.324219 251.464844 
202.636719 2.441406 256.347656 
202.636719 7.324219 256.347656 
202.636719 2.441406 261.230469 
202.636719 7.324219 261.230469 
207.519531 2.441406 256.347656 
212.402344 2.441406 256.347656 
207.519531 7.324219 256.347656 
207.519531 2.441406 261.230469 
212.402344 7.324219 256.347656 
212.402344 2.441406 261.230469 
207.519531 7.324219 261.230469 
212.402344 7.324219 261.230469 
202.636719 12.207031 256.347656 
202.636719 17.089844 256.347656 
202.636719 12.207031 261.230469 
202.636719 17.089844 261.230469 
202.636719 2.441406 266.113281 
202.636719 7.324219 266.113281 
202.636719 2.441406 270.996094 
202.636719 7.324219 270.996094 
207.519531 12.207031 256.347656 
212.402344 12.207031 256.347656 
207.519531 17.089844 256.347656 
207.519531 12.207031 261.230469 
212.402344 17.089844 256.347656 
212.402344 12.207031 261.230469 
207.519531 17.089844 261.230469 
212.402344 17.089844 261.230469 
207.519531 2.441406 266.113281 
212.402344 2.441406 266.113281 
207.519531 7.324219 266.113281 
207.519531 2.441406 270.996094 
212.402344 7.324219 266.113281 
212.402344 2.441406 270.996094 
207.519531 7.324219 270.996094 
212.402344 7.324219 270.996094 
202.636719 12.207031 266.113281 
202.636719 17.089844 266.113281 
202.636719 12.207031 270.996094 
202.636719 17.089844 270.996094 
207.519531 12.207031 266.113281 
212.402344 12.207031 266.113281 
207.519531 17.089844 266.113281 
207.519531 12.207031 270.996094 
212.402344 17.089844 266.113281 
212.402344 12.207031 270.996094 
207.519531 17.089844 270.996094 
212.402344 17.089844 270.996094 
217.285156 2.441406 256.347656 
222.167969 2.441406 256.347656 
217.285156 7.324219 256.347656 
217.285156 2.441406 261.230469 
222.167969 7.324219 256.347656 
222.167969 2.441406 261.230469 
217.285156 7.324219 261.230469 
222.167969 7.324219 261.230469 
227.050781 2.441406 261.230469 
217.285156 12.207031 256.347656 
217.285156 17.089844 256.347656 
217.285156 12.207031 261.230469 
222.167969 12.207031 261.230469 
217.285156 17.089844 261.230469 
222.167969 17.089844 261.230469 
217.285156 2.441406 266.113281 
222.167969 2.441406 266.113281 
217.285156 7.324219 266.113281 
217.285156 2.441406 270.996094 
222.167969 7.324219 266.113281 
222.167969 2.441406 270.996094 
217.285156 7.324219 270.996094 
222.167969 7.324219 270.996094 
227.050781 2.441406 266.113281 
227.050781 7.324219 266.113281 
227.050781 2.441406 270.996094 
227.050781 7.324219 270.996094 
217.285156 12.207031 266.113281 
222.167969 12.207031 266.113281 
217.285156 17.089844 266.113281 
217.285156 12.207031 270.996094 
222.167969 17.089844 266.113281 
222.167969 12.207031 270.996094 
217.285156 17.089844 270.996094 
222.167969 17.089844 270.996094 
227.050781 12.207031 266.113281 
227.050781 17.089844 266.113281 
227.050781 12.207031 270.996094 
227.050781 17.089844 270.996094 
202.636719 21.972656 256.347656 
202.636719 26.855469 256.347656 
202.636719 21.972656 261.230469 
202.636719 26.855469 261.230469 
207.519531 21.972656 256.347656 
212.402344 21.972656 256.347656 
207.519531 26.855469 256.347656 
207.519531 21.972656 261.230469 
212.402344 26.855469 256.347656 
212.402344 21.972656 261.230469 
207.519531 26.855469 261.230469 
212.402344 26.855469 261.230469 
202.636719 31.738281 261.230469 
202.636719 36.621094 261.230469 
202.636719 21.972656 266.113281 
202.636719 26.855469 266.113281 
202.636719 21.972656 270.996094 
202.636719 26.855469 270.996094 
207.519531 31.738281 256.347656 
212.402344 31.738281 256.347656 
207.519531 36.621094 256.347656 
207.519531 31.738281 261.230469 
212.402344 36.621094 256.347656 
212.402344 31.738281 261.230469 
207.519531 36.621094 261.230469 
212.402344 36.621094 261.230469 
207.519531 21.972656 266.113281 
212.402344 21.972656 266.113281 
207.519531 26.855469 266.113281 
207.519531 21.972656 270.996094 
212.402344 26.855469 266.113281 
212.402344 21.972656 270.996094 
207.519531 26.855469 270.996094 
212.402344 26.855469 270.996094 
202.636719 31.738281 266.113281 
202.636719 36.621094 266.113281 
202.636719 31.738281 270.996094 
197.753906 36.621094 270.996094 
202.636719 36.621094 270.996094 
207.519531 31.738281 266.113281 
