2.441406
241.699219 -563.964844 319.824219 
236.816406 -559.082031 319.824219 
241.699219 -559.082031 319.824219 
246.582031 -563.964844 314.941406 
246.582031 -563.964844 319.824219 
236.816406 -554.199219 314.941406 
236.816406 -549.316406 314.941406 
236.816406 -554.199219 319.824219 
241.699219 -554.199219 319.824219 
236.816406 -549.316406 319.824219 
241.699219 -549.316406 319.824219 
236.816406 -563.964844 324.707031 
241.699219 -563.964844 324.707031 
236.816406 -559.082031 324.707031 
236.816406 -563.964844 329.589844 
241.699219 -559.082031 324.707031 
241.699219 -563.964844 329.589844 
236.816406 -559.082031 329.589844 
241.699219 -559.082031 329.589844 
246.582031 -563.964844 329.589844 
246.582031 -559.082031 329.589844 
236.816406 -554.199219 324.707031 
241.699219 -554.199219 324.707031 
236.816406 -549.316406 324.707031 
236.816406 -554.199219 329.589844 
241.699219 -549.316406 324.707031 
241.699219 -554.199219 329.589844 
236.816406 -549.316406 329.589844 
241.699219 -549.316406 329.589844 
246.582031 -554.199219 329.589844 
246.582031 -549.316406 329.589844 
236.816406 -578.613281 334.472656 
236.816406 -583.496094 339.355469 
241.699219 -578.613281 334.472656 
236.816406 -578.613281 339.355469 
241.699219 -578.613281 339.355469 
246.582031 -578.613281 334.472656 
236.816406 -573.730469 334.472656 
241.699219 -573.730469 334.472656 
236.816406 -568.847656 334.472656 
236.816406 -573.730469 339.355469 
241.699219 -568.847656 334.472656 
241.699219 -573.730469 339.355469 
236.816406 -568.847656 339.355469 
241.699219 -568.847656 339.355469 
236.816406 -583.496094 344.238281 
241.699219 -583.496094 344.238281 
236.816406 -578.613281 344.238281 
236.816406 -583.496094 349.121094 
241.699219 -578.613281 344.238281 
241.699219 -583.496094 349.121094 
236.816406 -578.613281 349.121094 
241.699219 -578.613281 349.121094 
246.582031 -573.730469 334.472656 
246.582031 -568.847656 334.472656 
246.582031 -573.730469 339.355469 
246.582031 -568.847656 339.355469 
236.816406 -573.730469 344.238281 
241.699219 -573.730469 344.238281 
236.816406 -568.847656 344.238281 
236.816406 -573.730469 349.121094 
241.699219 -568.847656 344.238281 
241.699219 -573.730469 349.121094 
236.816406 -568.847656 349.121094 
241.699219 -568.847656 349.121094 
246.582031 -573.730469 344.238281 
246.582031 -568.847656 344.238281 
236.816406 -563.964844 334.472656 
241.699219 -563.964844 334.472656 
236.816406 -559.082031 334.472656 
236.816406 -563.964844 339.355469 
241.699219 -559.082031 334.472656 
241.699219 -563.964844 339.355469 
236.816406 -559.082031 339.355469 
241.699219 -559.082031 339.355469 
246.582031 -563.964844 334.472656 
246.582031 -559.082031 334.472656 
246.582031 -563.964844 339.355469 
246.582031 -559.082031 339.355469 
236.816406 -554.199219 334.472656 
241.699219 -554.199219 334.472656 
236.816406 -549.316406 334.472656 
236.816406 -554.199219 339.355469 
241.699219 -549.316406 334.472656 
241.699219 -554.199219 339.355469 
236.816406 -549.316406 339.355469 
241.699219 -549.316406 339.355469 
236.816406 -563.964844 344.238281 
241.699219 -563.964844 344.238281 
236.816406 -559.082031 344.238281 
236.816406 -563.964844 349.121094 
241.699219 -559.082031 344.238281 
241.699219 -563.964844 349.121094 
236.816406 -559.082031 349.121094 
241.699219 -559.082031 349.121094 
246.582031 -554.199219 334.472656 
246.582031 -549.316406 334.472656 
246.582031 -554.199219 339.355469 
246.582031 -549.316406 339.355469 
251.464844 -549.316406 339.355469 
246.582031 -563.964844 344.238281 
246.582031 -559.082031 344.238281 
246.582031 -563.964844 349.121094 
246.582031 -559.082031 349.121094 
236.816406 -554.199219 344.238281 
241.699219 -554.199219 344.238281 
236.816406 -549.316406 344.238281 
236.816406 -554.199219 349.121094 
241.699219 -549.316406 344.238281 
241.699219 -554.199219 349.121094 
236.816406 -549.316406 349.121094 
241.699219 -549.316406 349.121094 
246.582031 -554.199219 344.238281 
246.582031 -549.316406 344.238281 
246.582031 -554.199219 349.121094 
251.464844 -549.316406 344.238281 
246.582031 -549.316406 349.121094 
256.347656 -549.316406 344.238281 
236.816406 -588.378906 354.003906 
241.699219 -588.378906 354.003906 
236.816406 -588.378906 358.886719 
236.816406 -588.378906 363.769531 
241.699219 -588.378906 363.769531 
236.816406 -588.378906 368.652344 
236.816406 -588.378906 373.535156 
236.816406 -588.378906 378.417969 
236.816406 -588.378906 383.300781 
236.816406 -588.378906 388.183594 
290.527344 -549.316406 329.589844 
290.527344 -559.082031 339.355469 
290.527344 -554.199219 334.472656 
290.527344 -549.316406 334.472656 
290.527344 -554.199219 339.355469 
290.527344 -549.316406 339.355469 
290.527344 -563.964844 344.238281 
290.527344 -559.082031 344.238281 
290.527344 -563.964844 349.121094 
290.527344 -559.082031 349.121094 
290.527344 -554.199219 344.238281 
290.527344 -549.316406 344.238281 
290.527344 -554.199219 349.121094 
290.527344 -549.316406 349.121094 
295.410156 -549.316406 334.472656 
295.410156 -554.199219 339.355469 
295.410156 -549.316406 339.355469 
300.292969 -549.316406 339.355469 
295.410156 -559.082031 344.238281 
295.410156 -563.964844 349.121094 
295.410156 -559.082031 349.121094 
300.292969 -559.082031 349.121094 
305.175781 -549.316406 339.355469 
295.410156 -554.199219 344.238281 
300.292969 -554.199219 344.238281 
295.410156 -549.316406 344.238281 
295.410156 -554.199219 349.121094 
300.292969 -549.316406 344.238281 
300.292969 -554.199219 349.121094 
295.410156 -549.316406 349.121094 
300.292969 -549.316406 349.121094 
305.175781 -554.199219 344.238281 
305.175781 -549.316406 344.238281 
305.175781 -554.199219 349.121094 
310.058594 -549.316406 344.238281 
310.058594 -554.199219 349.121094 
305.175781 -549.316406 349.121094 
310.058594 -549.316406 349.121094 
236.816406 -583.496094 354.003906 
241.699219 -583.496094 354.003906 
236.816406 -578.613281 354.003906 
236.816406 -583.496094 358.886719 
241.699219 -578.613281 354.003906 
241.699219 -583.496094 358.886719 
236.816406 -578.613281 358.886719 
241.699219 -578.613281 358.886719 
236.816406 -573.730469 354.003906 
241.699219 -573.730469 354.003906 
236.816406 -568.847656 354.003906 
236.816406 -573.730469 358.886719 
241.699219 -568.847656 354.003906 
241.699219 -573.730469 358.886719 
236.816406 -568.847656 358.886719 
241.699219 -568.847656 358.886719 
236.816406 -583.496094 363.769531 
241.699219 -583.496094 363.769531 
236.816406 -578.613281 363.769531 
236.816406 -583.496094 368.652344 
241.699219 -578.613281 363.769531 
241.699219 -583.496094 368.652344 
236.816406 -578.613281 368.652344 
241.699219 -578.613281 368.652344 
236.816406 -573.730469 363.769531 
241.699219 -573.730469 363.769531 
236.816406 -568.847656 363.769531 
236.816406 -573.730469 368.652344 
241.699219 -568.847656 363.769531 
241.699219 -573.730469 368.652344 
236.816406 -568.847656 368.652344 
241.699219 -568.847656 368.652344 
236.816406 -563.964844 354.003906 
241.699219 -563.964844 354.003906 
236.816406 -559.082031 354.003906 
236.816406 -563.964844 358.886719 
241.699219 -559.082031 354.003906 
241.699219 -563.964844 358.886719 
236.816406 -559.082031 358.886719 
241.699219 -559.082031 358.886719 
236.816406 -554.199219 354.003906 
241.699219 -554.199219 354.003906 
236.816406 -549.316406 354.003906 
236.816406 -554.199219 358.886719 
241.699219 -554.199219 358.886719 
236.816406 -563.964844 363.769531 
241.699219 -563.964844 363.769531 
236.816406 -559.082031 363.769531 
241.699219 -559.082031 363.769531 
241.699219 -563.964844 368.652344 
246.582031 -554.199219 354.003906 
251.464844 -554.199219 354.003906 
246.582031 -554.199219 358.886719 
246.582031 -559.082031 368.652344 
236.816406 -583.496094 373.535156 
241.699219 -583.496094 373.535156 
236.816406 -578.613281 373.535156 
236.816406 -583.496094 378.417969 
241.699219 -578.613281 373.535156 
236.816406 -578.613281 378.417969 
236.816406 -573.730469 373.535156 
241.699219 -573.730469 373.535156 
236.816406 -568.847656 373.535156 
236.816406 -573.730469 378.417969 
241.699219 -573.730469 378.417969 
236.816406 -568.847656 378.417969 
241.699219 -568.847656 378.417969 
236.816406 -583.496094 383.300781 
236.816406 -578.613281 383.300781 
236.816406 -583.496094 388.183594 
236.816406 -578.613281 388.183594 
236.816406 -573.730469 383.300781 
236.816406 -568.847656 383.300781 
236.816406 -573.730469 388.183594 
236.816406 -568.847656 388.183594 
241.699219 -568.847656 388.183594 
261.230469 -559.082031 368.652344 
266.113281 -559.082031 368.652344 
266.113281 -554.199219 368.652344 
236.816406 -563.964844 378.417969 
236.816406 -563.964844 383.300781 
246.582031 -563.964844 388.183594 
256.347656 -559.082031 373.535156 
261.230469 -559.082031 373.535156 
266.113281 -559.082031 373.535156 
266.113281 -559.082031 378.417969 
290.527344 -563.964844 354.003906 
290.527344 -559.082031 354.003906 
290.527344 -563.964844 358.886719 
295.410156 -563.964844 354.003906 
295.410156 -559.082031 354.003906 
295.410156 -563.964844 358.886719 
300.292969 -559.082031 354.003906 
300.292969 -563.964844 358.886719 
295.410156 -559.082031 358.886719 
300.292969 -559.082031 358.886719 
305.175781 -559.082031 354.003906 
310.058594 -559.082031 354.003906 
305.175781 -559.082031 358.886719 
310.058594 -559.082031 358.886719 
295.410156 -554.199219 354.003906 
300.292969 -554.199219 354.003906 
295.410156 -549.316406 354.003906 
295.410156 -554.199219 358.886719 
300.292969 -549.316406 354.003906 
300.292969 -554.199219 358.886719 
300.292969 -549.316406 358.886719 
295.410156 -563.964844 363.769531 
300.292969 -563.964844 363.769531 
295.410156 -559.082031 363.769531 
295.410156 -563.964844 368.652344 
300.292969 -559.082031 363.769531 
300.292969 -563.964844 368.652344 
300.292969 -559.082031 368.652344 
305.175781 -554.199219 354.003906 
310.058594 -554.199219 354.003906 
305.175781 -549.316406 354.003906 
305.175781 -554.199219 358.886719 
310.058594 -549.316406 354.003906 
310.058594 -554.199219 358.886719 
305.175781 -549.316406 358.886719 
310.058594 -549.316406 358.886719 
305.175781 -559.082031 363.769531 
305.175781 -563.964844 368.652344 
310.058594 -559.082031 363.769531 
305.175781 -559.082031 368.652344 
310.058594 -559.082031 368.652344 
300.292969 -554.199219 363.769531 
300.292969 -549.316406 363.769531 
300.292969 -554.199219 368.652344 
305.175781 -554.199219 363.769531 
310.058594 -554.199219 363.769531 
305.175781 -549.316406 363.769531 
305.175781 -554.199219 368.652344 
310.058594 -554.199219 368.652344 
310.058594 -568.847656 383.300781 
305.175781 -568.847656 388.183594 
310.058594 -568.847656 388.183594 
300.292969 -563.964844 373.535156 
300.292969 -559.082031 373.535156 
300.292969 -563.964844 378.417969 
305.175781 -563.964844 373.535156 
310.058594 -563.964844 373.535156 
305.175781 -559.082031 373.535156 
305.175781 -563.964844 378.417969 
310.058594 -559.082031 373.535156 
310.058594 -563.964844 378.417969 
305.175781 -559.082031 378.417969 
310.058594 -559.082031 378.417969 
305.175781 -554.199219 373.535156 
310.058594 -554.199219 373.535156 
305.175781 -563.964844 383.300781 
310.058594 -563.964844 383.300781 
310.058594 -559.082031 383.300781 
310.058594 -563.964844 388.183594 
310.058594 -559.082031 388.183594 
183.105469 -544.433594 314.941406 
187.988281 -544.433594 314.941406 
192.871094 -544.433594 314.941406 
197.753906 -544.433594 314.941406 
202.636719 -544.433594 314.941406 
197.753906 -539.550781 314.941406 
202.636719 -539.550781 314.941406 
207.519531 -544.433594 314.941406 
212.402344 -544.433594 314.941406 
207.519531 -539.550781 314.941406 
212.402344 -539.550781 314.941406 
212.402344 -544.433594 319.824219 
212.402344 -544.433594 329.589844 
217.285156 -544.433594 314.941406 
222.167969 -544.433594 314.941406 
217.285156 -539.550781 314.941406 
217.285156 -544.433594 319.824219 
222.167969 -539.550781 314.941406 
222.167969 -544.433594 319.824219 
227.050781 -544.433594 314.941406 
231.933594 -544.433594 314.941406 
227.050781 -539.550781 314.941406 
227.050781 -544.433594 319.824219 
231.933594 -539.550781 314.941406 
231.933594 -544.433594 319.824219 
227.050781 -539.550781 319.824219 
231.933594 -539.550781 319.824219 
217.285156 -534.667969 314.941406 
222.167969 -534.667969 314.941406 
217.285156 -544.433594 329.589844 
222.167969 -544.433594 329.589844 
227.050781 -534.667969 314.941406 
231.933594 -534.667969 314.941406 
231.933594 -544.433594 329.589844 
222.167969 -544.433594 334.472656 
227.050781 -544.433594 334.472656 
231.933594 -544.433594 334.472656 
227.050781 -544.433594 339.355469 
231.933594 -544.433594 339.355469 
231.933594 -544.433594 344.238281 
192.871094 -588.378906 393.066406 
192.871094 -588.378906 427.246094 
197.753906 -588.378906 393.066406 
202.636719 -588.378906 393.066406 
197.753906 -588.378906 397.949219 
202.636719 -588.378906 397.949219 
207.519531 -593.261719 393.066406 
212.402344 -593.261719 393.066406 
207.519531 -588.378906 393.066406 
207.519531 -593.261719 397.949219 
212.402344 -588.378906 393.066406 
212.402344 -593.261719 397.949219 
207.519531 -588.378906 397.949219 
212.402344 -588.378906 397.949219 
197.753906 -588.378906 402.832031 
202.636719 -588.378906 402.832031 
197.753906 -588.378906 407.714844 
202.636719 -588.378906 407.714844 
207.519531 -593.261719 402.832031 
212.402344 -593.261719 402.832031 
207.519531 -588.378906 402.832031 
207.519531 -593.261719 407.714844 
212.402344 -588.378906 402.832031 
212.402344 -593.261719 407.714844 
207.519531 -588.378906 407.714844 
212.402344 -588.378906 407.714844 
217.285156 -593.261719 393.066406 
222.167969 -593.261719 393.066406 
217.285156 -588.378906 393.066406 
217.285156 -593.261719 397.949219 
222.167969 -588.378906 393.066406 
222.167969 -593.261719 397.949219 
217.285156 -588.378906 397.949219 
222.167969 -588.378906 397.949219 
227.050781 -588.378906 393.066406 
227.050781 -593.261719 397.949219 
231.933594 -588.378906 393.066406 
227.050781 -588.378906 397.949219 
231.933594 -588.378906 397.949219 
217.285156 -593.261719 402.832031 
222.167969 -593.261719 402.832031 
217.285156 -588.378906 402.832031 
217.285156 -593.261719 407.714844 
222.167969 -588.378906 402.832031 
222.167969 -593.261719 407.714844 
217.285156 -588.378906 407.714844 
222.167969 -588.378906 407.714844 
227.050781 -593.261719 402.832031 
227.050781 -588.378906 402.832031 
231.933594 -588.378906 402.832031 
227.050781 -588.378906 407.714844 
231.933594 -588.378906 407.714844 
197.753906 -588.378906 412.597656 
202.636719 -588.378906 412.597656 
197.753906 -588.378906 417.480469 
202.636719 -588.378906 417.480469 
207.519531 -593.261719 412.597656 
212.402344 -593.261719 412.597656 
207.519531 -588.378906 412.597656 
207.519531 -593.261719 417.480469 
212.402344 -588.378906 412.597656 
212.402344 -593.261719 417.480469 
207.519531 -588.378906 417.480469 
212.402344 -588.378906 417.480469 
202.636719 -593.261719 422.363281 
197.753906 -588.378906 422.363281 
202.636719 -588.378906 422.363281 
202.636719 -593.261719 427.246094 
197.753906 -588.378906 427.246094 
202.636719 -588.378906 427.246094 
207.519531 -593.261719 422.363281 
212.402344 -593.261719 422.363281 
207.519531 -588.378906 422.363281 
207.519531 -593.261719 427.246094 
212.402344 -588.378906 422.363281 
212.402344 -593.261719 427.246094 
207.519531 -588.378906 427.246094 
212.402344 -588.378906 427.246094 
217.285156 -593.261719 412.597656 
222.167969 -593.261719 412.597656 
217.285156 -588.378906 412.597656 
217.285156 -593.261719 417.480469 
222.167969 -588.378906 412.597656 
222.167969 -593.261719 417.480469 
217.285156 -588.378906 417.480469 
222.167969 -588.378906 417.480469 
227.050781 -588.378906 412.597656 
231.933594 -588.378906 412.597656 
227.050781 -588.378906 417.480469 
231.933594 -588.378906 417.480469 
217.285156 -593.261719 422.363281 
222.167969 -593.261719 422.363281 
217.285156 -588.378906 422.363281 
217.285156 -593.261719 427.246094 
222.167969 -588.378906 422.363281 
222.167969 -593.261719 427.246094 
217.285156 -588.378906 427.246094 
222.167969 -588.378906 427.246094 
227.050781 -588.378906 422.363281 
227.050781 -593.261719 427.246094 
231.933594 -588.378906 422.363281 
227.050781 -588.378906 427.246094 
231.933594 -588.378906 427.246094 
173.339844 -573.730469 393.066406 
168.457031 -568.847656 393.066406 
173.339844 -568.847656 393.066406 
173.339844 -573.730469 397.949219 
173.339844 -573.730469 402.832031 
192.871094 -583.496094 393.066406 
187.988281 -578.613281 393.066406 
192.871094 -578.613281 393.066406 
192.871094 -583.496094 397.949219 
187.988281 -578.613281 397.949219 
192.871094 -578.613281 397.949219 
178.222656 -573.730469 393.066406 
183.105469 -573.730469 393.066406 
178.222656 -568.847656 393.066406 
178.222656 -573.730469 397.949219 
183.105469 -568.847656 393.066406 
183.105469 -573.730469 397.949219 
178.222656 -568.847656 397.949219 
183.105469 -568.847656 397.949219 
183.105469 -578.613281 402.832031 
178.222656 -578.613281 407.714844 
183.105469 -578.613281 407.714844 
187.988281 -573.730469 393.066406 
192.871094 -573.730469 393.066406 
187.988281 -568.847656 393.066406 
187.988281 -573.730469 397.949219 
192.871094 -568.847656 393.066406 
192.871094 -573.730469 397.949219 
187.988281 -568.847656 397.949219 
192.871094 -568.847656 397.949219 
192.871094 -583.496094 402.832031 
187.988281 -578.613281 402.832031 
192.871094 -578.613281 402.832031 
192.871094 -583.496094 407.714844 
187.988281 -578.613281 407.714844 
192.871094 -578.613281 407.714844 
178.222656 -573.730469 402.832031 
183.105469 -573.730469 402.832031 
187.988281 -573.730469 402.832031 
192.871094 -573.730469 402.832031 
192.871094 -573.730469 407.714844 
192.871094 -563.964844 393.066406 
178.222656 -578.613281 412.597656 
183.105469 -578.613281 412.597656 
183.105469 -583.496094 417.480469 
187.988281 -583.496094 412.597656 
192.871094 -583.496094 412.597656 
187.988281 -578.613281 412.597656 
187.988281 -583.496094 417.480469 
192.871094 -578.613281 412.597656 
192.871094 -583.496094 417.480469 
192.871094 -578.613281 417.480469 
183.105469 -583.496094 422.363281 
183.105469 -583.496094 427.246094 
187.988281 -583.496094 422.363281 
192.871094 -583.496094 422.363281 
187.988281 -583.496094 427.246094 
192.871094 -583.496094 427.246094 
187.988281 -588.378906 432.128906 
192.871094 -588.378906 432.128906 
187.988281 -588.378906 437.011719 
192.871094 -588.378906 437.011719 
192.871094 -593.261719 441.894531 
187.988281 -588.378906 441.894531 
192.871094 -588.378906 441.894531 
192.871094 -593.261719 446.777344 
187.988281 -588.378906 446.777344 
192.871094 -593.261719 451.660156 
192.871094 -588.378906 451.660156 
192.871094 -593.261719 456.542969 
192.871094 -588.378906 456.542969 
192.871094 -588.378906 461.425781 
197.753906 -583.496094 393.066406 
202.636719 -583.496094 393.066406 
197.753906 -578.613281 393.066406 
197.753906 -583.496094 397.949219 
202.636719 -578.613281 393.066406 
202.636719 -583.496094 397.949219 
197.753906 -578.613281 397.949219 
202.636719 -578.613281 397.949219 
207.519531 -583.496094 393.066406 
212.402344 -583.496094 393.066406 
207.519531 -578.613281 393.066406 
207.519531 -583.496094 397.949219 
212.402344 -578.613281 393.066406 
212.402344 -583.496094 397.949219 
207.519531 -578.613281 397.949219 
212.402344 -578.613281 397.949219 
197.753906 -573.730469 393.066406 
202.636719 -573.730469 393.066406 
197.753906 -568.847656 393.066406 
197.753906 -573.730469 397.949219 
202.636719 -568.847656 393.066406 
202.636719 -573.730469 397.949219 
197.753906 -568.847656 397.949219 
202.636719 -568.847656 397.949219 
197.753906 -583.496094 402.832031 
202.636719 -583.496094 402.832031 
197.753906 -578.613281 402.832031 
197.753906 -583.496094 407.714844 
202.636719 -578.613281 402.832031 
202.636719 -583.496094 407.714844 
197.753906 -578.613281 407.714844 
202.636719 -578.613281 407.714844 
207.519531 -573.730469 393.066406 
212.402344 -573.730469 393.066406 
207.519531 -568.847656 393.066406 
207.519531 -573.730469 397.949219 
212.402344 -568.847656 393.066406 
212.402344 -573.730469 397.949219 
207.519531 -568.847656 397.949219 
212.402344 -568.847656 397.949219 
207.519531 -583.496094 402.832031 
212.402344 -583.496094 402.832031 
207.519531 -578.613281 402.832031 
207.519531 -583.496094 407.714844 
212.402344 -578.613281 402.832031 
212.402344 -583.496094 407.714844 
207.519531 -578.613281 407.714844 
212.402344 -578.613281 407.714844 
197.753906 -573.730469 402.832031 
202.636719 -573.730469 402.832031 
197.753906 -573.730469 407.714844 
202.636719 -573.730469 407.714844 
207.519531 -573.730469 402.832031 
212.402344 -573.730469 402.832031 
207.519531 -573.730469 407.714844 
212.402344 -573.730469 407.714844 
217.285156 -583.496094 393.066406 
222.167969 -583.496094 393.066406 
217.285156 -578.613281 393.066406 
217.285156 -583.496094 397.949219 
222.167969 -578.613281 393.066406 
222.167969 -583.496094 397.949219 
217.285156 -578.613281 397.949219 
222.167969 -578.613281 397.949219 
227.050781 -583.496094 393.066406 
231.933594 -583.496094 393.066406 
227.050781 -578.613281 393.066406 
227.050781 -583.496094 397.949219 
231.933594 -578.613281 393.066406 
231.933594 -583.496094 397.949219 
227.050781 -578.613281 397.949219 
231.933594 -578.613281 397.949219 
217.285156 -573.730469 393.066406 
222.167969 -573.730469 393.066406 
217.285156 -568.847656 393.066406 
217.285156 -573.730469 397.949219 
222.167969 -568.847656 393.066406 
222.167969 -573.730469 397.949219 
217.285156 -568.847656 397.949219 
217.285156 -583.496094 402.832031 
222.167969 -583.496094 402.832031 
217.285156 -578.613281 402.832031 
217.285156 -583.496094 407.714844 
222.167969 -578.613281 402.832031 
222.167969 -583.496094 407.714844 
217.285156 -578.613281 407.714844 
222.167969 -578.613281 407.714844 
227.050781 -573.730469 393.066406 
231.933594 -573.730469 393.066406 
227.050781 -568.847656 393.066406 
227.050781 -573.730469 397.949219 
231.933594 -568.847656 393.066406 
231.933594 -573.730469 397.949219 
227.050781 -583.496094 402.832031 
231.933594 -583.496094 402.832031 
227.050781 -578.613281 402.832031 
227.050781 -583.496094 407.714844 
231.933594 -578.613281 402.832031 
231.933594 -583.496094 407.714844 
227.050781 -578.613281 407.714844 
231.933594 -578.613281 407.714844 
217.285156 -573.730469 402.832031 
222.167969 -573.730469 402.832031 
227.050781 -573.730469 402.832031 
231.933594 -573.730469 402.832031 
227.050781 -573.730469 407.714844 
231.933594 -573.730469 407.714844 
231.933594 -568.847656 407.714844 
197.753906 -563.964844 393.066406 
202.636719 -563.964844 393.066406 
197.753906 -583.496094 412.597656 
202.636719 -583.496094 412.597656 
197.753906 -578.613281 412.597656 
197.753906 -583.496094 417.480469 
202.636719 -578.613281 412.597656 
202.636719 -583.496094 417.480469 
197.753906 -578.613281 417.480469 
202.636719 -578.613281 417.480469 
207.519531 -583.496094 412.597656 
212.402344 -583.496094 412.597656 
207.519531 -578.613281 412.597656 
207.519531 -583.496094 417.480469 
212.402344 -578.613281 412.597656 
212.402344 -583.496094 417.480469 
207.519531 -578.613281 417.480469 
212.402344 -578.613281 417.480469 
197.753906 -583.496094 422.363281 
202.636719 -583.496094 422.363281 
197.753906 -583.496094 427.246094 
202.636719 -583.496094 427.246094 
207.519531 -583.496094 422.363281 
212.402344 -583.496094 422.363281 
207.519531 -583.496094 427.246094 
212.402344 -583.496094 427.246094 
217.285156 -583.496094 412.597656 
222.167969 -583.496094 412.597656 
217.285156 -578.613281 412.597656 
217.285156 -583.496094 417.480469 
222.167969 -578.613281 412.597656 
222.167969 -583.496094 417.480469 
217.285156 -578.613281 417.480469 
222.167969 -578.613281 417.480469 
227.050781 -583.496094 412.597656 
231.933594 -583.496094 412.597656 
227.050781 -578.613281 412.597656 
227.050781 -583.496094 417.480469 
231.933594 -578.613281 412.597656 
231.933594 -583.496094 417.480469 
227.050781 -578.613281 417.480469 
231.933594 -578.613281 417.480469 
217.285156 -583.496094 422.363281 
222.167969 -583.496094 422.363281 
217.285156 -578.613281 422.363281 
217.285156 -583.496094 427.246094 
222.167969 -578.613281 422.363281 
222.167969 -583.496094 427.246094 
227.050781 -573.730469 412.597656 
231.933594 -573.730469 412.597656 
227.050781 -583.496094 422.363281 
231.933594 -583.496094 422.363281 
227.050781 -578.613281 422.363281 
227.050781 -583.496094 427.246094 
231.933594 -578.613281 422.363281 
231.933594 -583.496094 427.246094 
231.933594 -578.613281 427.246094 
202.636719 -593.261719 432.128906 
197.753906 -588.378906 432.128906 
197.753906 -593.261719 437.011719 
202.636719 -588.378906 432.128906 
202.636719 -593.261719 437.011719 
197.753906 -588.378906 437.011719 
202.636719 -588.378906 437.011719 
207.519531 -593.261719 432.128906 
212.402344 -593.261719 432.128906 
207.519531 -588.378906 432.128906 
207.519531 -593.261719 437.011719 
212.402344 -588.378906 432.128906 
212.402344 -593.261719 437.011719 
207.519531 -588.378906 437.011719 
212.402344 -588.378906 437.011719 
207.519531 -598.144531 446.777344 
197.753906 -593.261719 441.894531 
202.636719 -593.261719 441.894531 
197.753906 -588.378906 441.894531 
197.753906 -593.261719 446.777344 
202.636719 -588.378906 441.894531 
202.636719 -593.261719 446.777344 
197.753906 -588.378906 446.777344 
202.636719 -588.378906 446.777344 
207.519531 -593.261719 441.894531 
212.402344 -593.261719 441.894531 
207.519531 -588.378906 441.894531 
207.519531 -593.261719 446.777344 
212.402344 -588.378906 441.894531 
212.402344 -593.261719 446.777344 
207.519531 -588.378906 446.777344 
212.402344 -588.378906 446.777344 
217.285156 -593.261719 432.128906 
222.167969 -593.261719 432.128906 
217.285156 -588.378906 432.128906 
217.285156 -593.261719 437.011719 
222.167969 -588.378906 432.128906 
222.167969 -593.261719 437.011719 
217.285156 -588.378906 437.011719 
222.167969 -588.378906 437.011719 
227.050781 -593.261719 432.128906 
231.933594 -593.261719 432.128906 
227.050781 -588.378906 432.128906 
227.050781 -593.261719 437.011719 
231.933594 -588.378906 432.128906 
231.933594 -593.261719 437.011719 
227.050781 -588.378906 437.011719 
231.933594 -588.378906 437.011719 
217.285156 -593.261719 441.894531 
222.167969 -593.261719 441.894531 
217.285156 -588.378906 441.894531 
217.285156 -593.261719 446.777344 
222.167969 -588.378906 441.894531 
222.167969 -593.261719 446.777344 
217.285156 -588.378906 446.777344 
222.167969 -588.378906 446.777344 
227.050781 -593.261719 441.894531 
227.050781 -588.378906 441.894531 
227.050781 -593.261719 446.777344 
227.050781 -588.378906 446.777344 
231.933594 -588.378906 446.777344 
202.636719 -598.144531 451.660156 
202.636719 -598.144531 456.542969 
207.519531 -598.144531 451.660156 
212.402344 -598.144531 451.660156 
207.519531 -598.144531 456.542969 
212.402344 -598.144531 456.542969 
197.753906 -593.261719 451.660156 
202.636719 -593.261719 451.660156 
197.753906 -588.378906 451.660156 
197.753906 -593.261719 456.542969 
202.636719 -588.378906 451.660156 
202.636719 -593.261719 456.542969 
197.753906 -588.378906 456.542969 
202.636719 -588.378906 456.542969 
207.519531 -593.261719 451.660156 
212.402344 -593.261719 451.660156 
207.519531 -588.378906 451.660156 
207.519531 -593.261719 456.542969 
212.402344 -588.378906 451.660156 
212.402344 -593.261719 456.542969 
207.519531 -588.378906 456.542969 
212.402344 -588.378906 456.542969 
207.519531 -598.144531 461.425781 
212.402344 -598.144531 461.425781 
197.753906 -593.261719 461.425781 
197.753906 -588.378906 461.425781 
202.636719 -588.378906 461.425781 
197.753906 -588.378906 466.308594 
202.636719 -588.378906 466.308594 
207.519531 -593.261719 461.425781 
212.402344 -593.261719 461.425781 
207.519531 -588.378906 461.425781 
212.402344 -588.378906 461.425781 
212.402344 -593.261719 466.308594 
207.519531 -588.378906 466.308594 
212.402344 -588.378906 466.308594 
217.285156 -598.144531 456.542969 
222.167969 -598.144531 456.542969 
227.050781 -598.144531 456.542969 
217.285156 -593.261719 451.660156 
222.167969 -593.261719 451.660156 
217.285156 -588.378906 451.660156 
217.285156 -593.261719 456.542969 
222.167969 -588.378906 451.660156 
222.167969 -593.261719 456.542969 
217.285156 -588.378906 456.542969 
222.167969 -588.378906 456.542969 
217.285156 -598.144531 461.425781 
222.167969 -598.144531 461.425781 
227.050781 -593.261719 451.660156 
227.050781 -588.378906 451.660156 
227.050781 -593.261719 456.542969 
231.933594 -588.378906 451.660156 
227.050781 -588.378906 456.542969 
231.933594 -588.378906 456.542969 
227.050781 -598.144531 461.425781 
217.285156 -593.261719 461.425781 
222.167969 -593.261719 461.425781 
217.285156 -588.378906 461.425781 
217.285156 -593.261719 466.308594 
222.167969 -588.378906 461.425781 
222.167969 -593.261719 466.308594 
217.285156 -588.378906 466.308594 
222.167969 -588.378906 466.308594 
227.050781 -593.261719 461.425781 
231.933594 -593.261719 461.425781 
227.050781 -588.378906 461.425781 
227.050781 -593.261719 466.308594 
231.933594 -588.378906 461.425781 
231.933594 -593.261719 466.308594 
227.050781 -588.378906 466.308594 
231.933594 -588.378906 466.308594 
183.105469 -583.496094 432.128906 
187.988281 -583.496094 432.128906 
192.871094 -583.496094 432.128906 
197.753906 -583.496094 432.128906 
202.636719 -583.496094 432.128906 
207.519531 -583.496094 432.128906 
212.402344 -583.496094 432.128906 
207.519531 -583.496094 437.011719 
212.402344 -578.613281 432.128906 
212.402344 -583.496094 437.011719 
202.636719 -583.496094 441.894531 
202.636719 -583.496094 446.777344 
207.519531 -583.496094 441.894531 
212.402344 -583.496094 441.894531 
207.519531 -583.496094 446.777344 
212.402344 -583.496094 446.777344 
217.285156 -583.496094 432.128906 
222.167969 -583.496094 432.128906 
217.285156 -583.496094 437.011719 
222.167969 -583.496094 437.011719 
222.167969 -578.613281 437.011719 
227.050781 -583.496094 432.128906 
231.933594 -583.496094 432.128906 
227.050781 -578.613281 432.128906 
227.050781 -583.496094 437.011719 
231.933594 -578.613281 432.128906 
231.933594 -583.496094 437.011719 
227.050781 -578.613281 437.011719 
231.933594 -578.613281 437.011719 
217.285156 -583.496094 441.894531 
222.167969 -583.496094 441.894531 
217.285156 -578.613281 441.894531 
217.285156 -583.496094 446.777344 
222.167969 -578.613281 441.894531 
222.167969 -583.496094 446.777344 
217.285156 -578.613281 446.777344 
222.167969 -578.613281 446.777344 
227.050781 -583.496094 441.894531 
231.933594 -583.496094 441.894531 
227.050781 -578.613281 441.894531 
227.050781 -583.496094 446.777344 
231.933594 -578.613281 441.894531 
231.933594 -583.496094 446.777344 
227.050781 -578.613281 446.777344 
231.933594 -578.613281 446.777344 
202.636719 -583.496094 451.660156 
202.636719 -583.496094 456.542969 
207.519531 -583.496094 451.660156 
212.402344 -583.496094 451.660156 
207.519531 -583.496094 456.542969 
212.402344 -578.613281 451.660156 
212.402344 -583.496094 456.542969 
207.519531 -578.613281 456.542969 
212.402344 -578.613281 456.542969 
197.753906 -583.496094 461.425781 
202.636719 -583.496094 461.425781 
197.753906 -583.496094 466.308594 
202.636719 -578.613281 461.425781 
202.636719 -583.496094 466.308594 
197.753906 -578.613281 466.308594 
202.636719 -578.613281 466.308594 
207.519531 -583.496094 461.425781 
212.402344 -583.496094 461.425781 
207.519531 -578.613281 461.425781 
207.519531 -583.496094 466.308594 
212.402344 -578.613281 461.425781 
212.402344 -583.496094 466.308594 
207.519531 -578.613281 466.308594 
212.402344 -578.613281 466.308594 
212.402344 -573.730469 466.308594 
217.285156 -583.496094 451.660156 
222.167969 -583.496094 451.660156 
217.285156 -578.613281 451.660156 
217.285156 -583.496094 456.542969 
222.167969 -578.613281 451.660156 
222.167969 -583.496094 456.542969 
217.285156 -578.613281 456.542969 
222.167969 -578.613281 456.542969 
227.050781 -583.496094 451.660156 
231.933594 -583.496094 451.660156 
227.050781 -578.613281 451.660156 
227.050781 -583.496094 456.542969 
231.933594 -578.613281 451.660156 
231.933594 -583.496094 456.542969 
227.050781 -578.613281 456.542969 
231.933594 -578.613281 456.542969 
222.167969 -573.730469 456.542969 
217.285156 -583.496094 461.425781 
222.167969 -583.496094 461.425781 
217.285156 -578.613281 461.425781 
217.285156 -583.496094 466.308594 
222.167969 -578.613281 461.425781 
222.167969 -583.496094 466.308594 
217.285156 -578.613281 466.308594 
222.167969 -578.613281 466.308594 
227.050781 -573.730469 451.660156 
231.933594 -573.730469 451.660156 
227.050781 -573.730469 456.542969 
231.933594 -573.730469 456.542969 
227.050781 -583.496094 461.425781 
231.933594 -583.496094 461.425781 
227.050781 -578.613281 461.425781 
227.050781 -583.496094 466.308594 
231.933594 -578.613281 461.425781 
231.933594 -583.496094 466.308594 
227.050781 -578.613281 466.308594 
231.933594 -578.613281 466.308594 
222.167969 -573.730469 461.425781 
217.285156 -573.730469 466.308594 
222.167969 -573.730469 466.308594 
217.285156 -568.847656 466.308594 
222.167969 -568.847656 466.308594 
227.050781 -573.730469 461.425781 
231.933594 -573.730469 461.425781 
227.050781 -568.847656 461.425781 
227.050781 -573.730469 466.308594 
231.933594 -568.847656 461.425781 
231.933594 -573.730469 466.308594 
227.050781 -568.847656 466.308594 
231.933594 -568.847656 466.308594 
222.167969 -563.964844 466.308594 
231.933594 -563.964844 461.425781 
227.050781 -563.964844 466.308594 
231.933594 -563.964844 466.308594 
231.933594 -559.082031 466.308594 
236.816406 -544.433594 314.941406 
236.816406 -539.550781 314.941406 
236.816406 -544.433594 319.824219 
241.699219 -539.550781 314.941406 
241.699219 -544.433594 319.824219 
236.816406 -539.550781 319.824219 
241.699219 -539.550781 319.824219 
246.582031 -539.550781 319.824219 
236.816406 -534.667969 314.941406 
241.699219 -534.667969 314.941406 
241.699219 -534.667969 319.824219 
246.582031 -534.667969 314.941406 
246.582031 -534.667969 319.824219 
246.582031 -544.433594 324.707031 
246.582031 -544.433594 329.589844 
236.816406 -544.433594 334.472656 
241.699219 -544.433594 334.472656 
236.816406 -544.433594 339.355469 
241.699219 -544.433594 339.355469 
246.582031 -544.433594 334.472656 
251.464844 -544.433594 334.472656 
246.582031 -544.433594 339.355469 
251.464844 -544.433594 339.355469 
236.816406 -544.433594 344.238281 
241.699219 -544.433594 344.238281 
236.816406 -544.433594 349.121094 
241.699219 -544.433594 349.121094 
246.582031 -544.433594 344.238281 
295.410156 -544.433594 329.589844 
300.292969 -539.550781 324.707031 
305.175781 -539.550781 329.589844 
310.058594 -534.667969 329.589844 
290.527344 -544.433594 339.355469 
290.527344 -544.433594 344.238281 
295.410156 -544.433594 334.472656 
300.292969 -544.433594 334.472656 
295.410156 -544.433594 339.355469 
300.292969 -544.433594 339.355469 
305.175781 -544.433594 334.472656 
305.175781 -539.550781 334.472656 
305.175781 -544.433594 339.355469 
310.058594 -539.550781 334.472656 
310.058594 -544.433594 339.355469 
295.410156 -544.433594 344.238281 
300.292969 -544.433594 344.238281 
295.410156 -544.433594 349.121094 
300.292969 -544.433594 349.121094 
305.175781 -544.433594 344.238281 
310.058594 -544.433594 344.238281 
305.175781 -544.433594 349.121094 
310.058594 -544.433594 349.121094 
310.058594 -539.550781 349.121094 
295.410156 -544.433594 354.003906 
300.292969 -544.433594 354.003906 
300.292969 -544.433594 358.886719 
305.175781 -544.433594 354.003906 
310.058594 -544.433594 354.003906 
305.175781 -544.433594 358.886719 
236.816406 -588.378906 393.066406 
236.816406 -588.378906 402.832031 
236.816406 -583.496094 393.066406 
236.816406 -578.613281 393.066406 
236.816406 -583.496094 397.949219 
236.816406 -578.613281 397.949219 
236.816406 -573.730469 393.066406 
236.816406 -573.730469 397.949219 
241.699219 -568.847656 393.066406 
236.816406 -568.847656 397.949219 
241.699219 -568.847656 397.949219 
236.816406 -583.496094 402.832031 
236.816406 -578.613281 402.832031 
236.816406 -583.496094 407.714844 
236.816406 -578.613281 407.714844 
236.816406 -573.730469 402.832031 
236.816406 -568.847656 402.832031 
236.816406 -573.730469 407.714844 
241.699219 -568.847656 402.832031 
241.699219 -573.730469 407.714844 
236.816406 -568.847656 407.714844 
241.699219 -568.847656 407.714844 
246.582031 -568.847656 402.832031 
251.464844 -568.847656 402.832031 
246.582031 -568.847656 407.714844 
251.464844 -568.847656 407.714844 
256.347656 -568.847656 397.949219 
261.230469 -568.847656 397.949219 
256.347656 -568.847656 402.832031 
261.230469 -568.847656 402.832031 
256.347656 -568.847656 407.714844 
261.230469 -568.847656 407.714844 
251.464844 -563.964844 393.066406 
236.816406 -578.613281 417.480469 
236.816406 -573.730469 412.597656 
241.699219 -573.730469 412.597656 
236.816406 -573.730469 417.480469 
241.699219 -573.730469 417.480469 
236.816406 -578.613281 422.363281 
236.816406 -578.613281 427.246094 
241.699219 -578.613281 427.246094 
246.582031 -573.730469 412.597656 
251.464844 -573.730469 412.597656 
246.582031 -573.730469 417.480469 
251.464844 -568.847656 412.597656 
251.464844 -573.730469 417.480469 
251.464844 -578.613281 422.363281 
246.582031 -578.613281 427.246094 
251.464844 -578.613281 427.246094 
251.464844 -573.730469 422.363281 
256.347656 -573.730469 412.597656 
256.347656 -573.730469 417.480469 
256.347656 -578.613281 422.363281 
256.347656 -578.613281 427.246094 
256.347656 -573.730469 422.363281 
236.816406 -588.378906 456.542969 
241.699219 -588.378906 456.542969 
246.582031 -588.378906 451.660156 
251.464844 -588.378906 451.660156 
246.582031 -588.378906 456.542969 
251.464844 -588.378906 456.542969 
236.816406 -588.378906 461.425781 
241.699219 -588.378906 461.425781 
236.816406 -588.378906 466.308594 
241.699219 -588.378906 466.308594 
246.582031 -588.378906 461.425781 
246.582031 -593.261719 466.308594 
251.464844 -588.378906 461.425781 
251.464844 -593.261719 466.308594 
246.582031 -588.378906 466.308594 
251.464844 -588.378906 466.308594 
270.996094 -593.261719 451.660156 
270.996094 -588.378906 451.660156 
305.175781 -573.730469 393.066406 
310.058594 -573.730469 393.066406 
310.058594 -568.847656 393.066406 
310.058594 -573.730469 397.949219 
310.058594 -568.847656 397.949219 
310.058594 -573.730469 402.832031 
280.761719 -578.613281 412.597656 
280.761719 -578.613281 417.480469 
285.644531 -578.613281 417.480469 
280.761719 -573.730469 417.480469 
275.878906 -583.496094 422.363281 
280.761719 -583.496094 422.363281 
275.878906 -578.613281 422.363281 
275.878906 -583.496094 427.246094 
280.761719 -578.613281 422.363281 
280.761719 -583.496094 427.246094 
275.878906 -578.613281 427.246094 
280.761719 -578.613281 427.246094 
285.644531 -578.613281 422.363281 
285.644531 -583.496094 427.246094 
285.644531 -578.613281 427.246094 
275.878906 -573.730469 422.363281 
310.058594 -563.964844 393.066406 
275.878906 -588.378906 432.128906 
280.761719 -588.378906 432.128906 
275.878906 -588.378906 437.011719 
280.761719 -588.378906 437.011719 
285.644531 -588.378906 432.128906 
275.878906 -588.378906 441.894531 
280.761719 -588.378906 441.894531 
275.878906 -588.378906 446.777344 
275.878906 -588.378906 451.660156 
236.816406 -578.613281 432.128906 
236.816406 -583.496094 437.011719 
241.699219 -578.613281 432.128906 
236.816406 -578.613281 437.011719 
241.699219 -578.613281 437.011719 
246.582031 -578.613281 432.128906 
251.464844 -578.613281 432.128906 
251.464844 -583.496094 437.011719 
246.582031 -578.613281 437.011719 
251.464844 -578.613281 437.011719 
236.816406 -583.496094 441.894531 
241.699219 -583.496094 441.894531 
236.816406 -578.613281 441.894531 
236.816406 -583.496094 446.777344 
241.699219 -578.613281 441.894531 
241.699219 -583.496094 446.777344 
236.816406 -578.613281 446.777344 
241.699219 -578.613281 446.777344 
246.582031 -583.496094 441.894531 
251.464844 -583.496094 441.894531 
246.582031 -578.613281 441.894531 
246.582031 -583.496094 446.777344 
251.464844 -578.613281 441.894531 
251.464844 -583.496094 446.777344 
246.582031 -578.613281 446.777344 
251.464844 -578.613281 446.777344 
236.816406 -573.730469 446.777344 
251.464844 -573.730469 446.777344 
256.347656 -578.613281 432.128906 
256.347656 -578.613281 437.011719 
256.347656 -578.613281 441.894531 
256.347656 -583.496094 446.777344 
236.816406 -583.496094 451.660156 
241.699219 -583.496094 451.660156 
236.816406 -578.613281 451.660156 
236.816406 -583.496094 456.542969 
241.699219 -578.613281 451.660156 
241.699219 -583.496094 456.542969 
236.816406 -578.613281 456.542969 
241.699219 -578.613281 456.542969 
246.582031 -583.496094 451.660156 
251.464844 -583.496094 451.660156 
246.582031 -578.613281 451.660156 
246.582031 -583.496094 456.542969 
251.464844 -578.613281 451.660156 
251.464844 -583.496094 456.542969 
246.582031 -578.613281 456.542969 
251.464844 -578.613281 456.542969 
236.816406 -573.730469 451.660156 
241.699219 -573.730469 451.660156 
236.816406 -573.730469 456.542969 
241.699219 -573.730469 456.542969 
236.816406 -568.847656 456.542969 
241.699219 -568.847656 456.542969 
236.816406 -583.496094 461.425781 
241.699219 -583.496094 461.425781 
236.816406 -578.613281 461.425781 
236.816406 -583.496094 466.308594 
241.699219 -578.613281 461.425781 
241.699219 -583.496094 466.308594 
236.816406 -578.613281 466.308594 
241.699219 -578.613281 466.308594 
246.582031 -573.730469 451.660156 
251.464844 -573.730469 451.660156 
246.582031 -573.730469 456.542969 
251.464844 -573.730469 456.542969 
246.582031 -568.847656 456.542969 
251.464844 -568.847656 456.542969 
246.582031 -583.496094 461.425781 
251.464844 -583.496094 461.425781 
246.582031 -578.613281 461.425781 
246.582031 -583.496094 466.308594 
251.464844 -578.613281 461.425781 
251.464844 -583.496094 466.308594 
246.582031 -578.613281 466.308594 
251.464844 -578.613281 466.308594 
236.816406 -573.730469 461.425781 
241.699219 -573.730469 461.425781 
236.816406 -568.847656 461.425781 
236.816406 -573.730469 466.308594 
241.699219 -568.847656 461.425781 
241.699219 -573.730469 466.308594 
236.816406 -568.847656 466.308594 
241.699219 -568.847656 466.308594 
246.582031 -573.730469 461.425781 
251.464844 -573.730469 461.425781 
246.582031 -568.847656 461.425781 
246.582031 -573.730469 466.308594 
251.464844 -568.847656 461.425781 
251.464844 -573.730469 466.308594 
246.582031 -568.847656 466.308594 
251.464844 -568.847656 466.308594 
256.347656 -578.613281 451.660156 
256.347656 -578.613281 456.542969 
256.347656 -573.730469 451.660156 
256.347656 -573.730469 456.542969 
256.347656 -568.847656 456.542969 
270.996094 -583.496094 461.425781 
270.996094 -578.613281 466.308594 
256.347656 -568.847656 461.425781 
256.347656 -573.730469 466.308594 
256.347656 -568.847656 466.308594 
270.996094 -573.730469 466.308594 
270.996094 -568.847656 466.308594 
241.699219 -563.964844 456.542969 
246.582031 -563.964844 456.542969 
251.464844 -563.964844 456.542969 
236.816406 -563.964844 461.425781 
241.699219 -563.964844 461.425781 
236.816406 -559.082031 461.425781 
236.816406 -563.964844 466.308594 
241.699219 -559.082031 461.425781 
241.699219 -563.964844 466.308594 
236.816406 -559.082031 466.308594 
241.699219 -559.082031 466.308594 
246.582031 -563.964844 461.425781 
251.464844 -563.964844 461.425781 
246.582031 -559.082031 461.425781 
246.582031 -563.964844 466.308594 
251.464844 -559.082031 461.425781 
251.464844 -563.964844 466.308594 
246.582031 -559.082031 466.308594 
251.464844 -559.082031 466.308594 
236.816406 -554.199219 466.308594 
241.699219 -554.199219 466.308594 
241.699219 -549.316406 466.308594 
246.582031 -554.199219 461.425781 
246.582031 -554.199219 466.308594 
251.464844 -554.199219 466.308594 
246.582031 -549.316406 466.308594 
251.464844 -549.316406 466.308594 
256.347656 -563.964844 456.542969 
256.347656 -563.964844 461.425781 
256.347656 -559.082031 461.425781 
256.347656 -563.964844 466.308594 
256.347656 -559.082031 466.308594 
256.347656 -554.199219 466.308594 
275.878906 -583.496094 432.128906 
280.761719 -583.496094 432.128906 
275.878906 -578.613281 432.128906 
275.878906 -583.496094 437.011719 
280.761719 -578.613281 432.128906 
280.761719 -583.496094 437.011719 
275.878906 -578.613281 437.011719 
280.761719 -578.613281 437.011719 
285.644531 -583.496094 432.128906 
290.527344 -583.496094 432.128906 
285.644531 -578.613281 432.128906 
285.644531 -583.496094 437.011719 
285.644531 -578.613281 437.011719 
275.878906 -583.496094 441.894531 
280.761719 -583.496094 441.894531 
275.878906 -578.613281 441.894531 
275.878906 -583.496094 446.777344 
280.761719 -578.613281 441.894531 
280.761719 -583.496094 446.777344 
285.644531 -578.613281 441.894531 
275.878906 -583.496094 451.660156 
222.167969 -588.378906 471.191406 
227.050781 -588.378906 471.191406 
231.933594 -588.378906 471.191406 
197.753906 -583.496094 471.191406 
202.636719 -583.496094 471.191406 
197.753906 -578.613281 471.191406 
202.636719 -578.613281 471.191406 
207.519531 -583.496094 471.191406 
212.402344 -583.496094 471.191406 
207.519531 -578.613281 471.191406 
212.402344 -578.613281 471.191406 
212.402344 -578.613281 476.074219 
202.636719 -573.730469 471.191406 
197.753906 -573.730469 476.074219 
202.636719 -573.730469 476.074219 
197.753906 -568.847656 476.074219 
202.636719 -568.847656 476.074219 
207.519531 -573.730469 471.191406 
212.402344 -573.730469 471.191406 
207.519531 -568.847656 471.191406 
207.519531 -573.730469 476.074219 
212.402344 -568.847656 471.191406 
212.402344 -573.730469 476.074219 
207.519531 -568.847656 476.074219 
212.402344 -568.847656 476.074219 
197.753906 -568.847656 480.957031 
202.636719 -568.847656 480.957031 
197.753906 -568.847656 485.839844 
202.636719 -568.847656 485.839844 
207.519531 -568.847656 480.957031 
212.402344 -568.847656 480.957031 
207.519531 -568.847656 485.839844 
212.402344 -568.847656 485.839844 
217.285156 -583.496094 471.191406 
222.167969 -583.496094 471.191406 
217.285156 -578.613281 471.191406 
222.167969 -578.613281 471.191406 
217.285156 -578.613281 476.074219 
222.167969 -578.613281 476.074219 
227.050781 -583.496094 471.191406 
231.933594 -583.496094 471.191406 
227.050781 -578.613281 471.191406 
231.933594 -578.613281 471.191406 
231.933594 -583.496094 476.074219 
227.050781 -578.613281 476.074219 
231.933594 -578.613281 476.074219 
217.285156 -573.730469 471.191406 
222.167969 -573.730469 471.191406 
217.285156 -568.847656 471.191406 
217.285156 -573.730469 476.074219 
222.167969 -568.847656 471.191406 
222.167969 -573.730469 476.074219 
217.285156 -568.847656 476.074219 
222.167969 -568.847656 476.074219 
227.050781 -573.730469 471.191406 
231.933594 -573.730469 471.191406 
227.050781 -568.847656 471.191406 
227.050781 -573.730469 476.074219 
231.933594 -568.847656 471.191406 
231.933594 -573.730469 476.074219 
227.050781 -568.847656 476.074219 
231.933594 -568.847656 476.074219 
222.167969 -573.730469 480.957031 
217.285156 -568.847656 480.957031 
222.167969 -568.847656 480.957031 
217.285156 -568.847656 485.839844 
222.167969 -568.847656 485.839844 
227.050781 -573.730469 480.957031 
231.933594 -573.730469 480.957031 
227.050781 -568.847656 480.957031 
231.933594 -568.847656 480.957031 
227.050781 -568.847656 485.839844 
231.933594 -568.847656 485.839844 
212.402344 -563.964844 471.191406 
207.519531 -563.964844 476.074219 
212.402344 -563.964844 476.074219 
207.519531 -559.082031 476.074219 
212.402344 -559.082031 476.074219 
197.753906 -563.964844 480.957031 
202.636719 -563.964844 480.957031 
197.753906 -563.964844 485.839844 
202.636719 -559.082031 480.957031 
202.636719 -563.964844 485.839844 
197.753906 -559.082031 485.839844 
202.636719 -559.082031 485.839844 
207.519531 -563.964844 480.957031 
212.402344 -563.964844 480.957031 
207.519531 -559.082031 480.957031 
207.519531 -563.964844 485.839844 
212.402344 -559.082031 480.957031 
