2.441406
476.074219 -812.988281 456.542969 
480.957031 -817.871094 451.660156 
480.957031 -812.988281 451.660156 
480.957031 -817.871094 456.542969 
485.839844 -812.988281 451.660156 
485.839844 -817.871094 456.542969 
480.957031 -812.988281 456.542969 
485.839844 -812.988281 456.542969 
471.191406 -808.105469 451.660156 
476.074219 -808.105469 451.660156 
471.191406 -808.105469 456.542969 
476.074219 -808.105469 456.542969 
471.191406 -817.871094 461.425781 
476.074219 -817.871094 461.425781 
471.191406 -812.988281 461.425781 
471.191406 -817.871094 466.308594 
476.074219 -812.988281 461.425781 
476.074219 -817.871094 466.308594 
471.191406 -812.988281 466.308594 
476.074219 -812.988281 466.308594 
480.957031 -808.105469 451.660156 
485.839844 -808.105469 451.660156 
480.957031 -808.105469 456.542969 
485.839844 -808.105469 456.542969 
480.957031 -817.871094 461.425781 
485.839844 -817.871094 461.425781 
480.957031 -812.988281 461.425781 
480.957031 -817.871094 466.308594 
485.839844 -812.988281 461.425781 
485.839844 -817.871094 466.308594 
480.957031 -812.988281 466.308594 
485.839844 -812.988281 466.308594 
471.191406 -808.105469 461.425781 
476.074219 -808.105469 461.425781 
476.074219 -808.105469 466.308594 
480.957031 -808.105469 461.425781 
485.839844 -808.105469 461.425781 
480.957031 -808.105469 466.308594 
485.839844 -808.105469 466.308594 
490.722656 -812.988281 456.542969 
490.722656 -812.988281 461.425781 
490.722656 -812.988281 466.308594 
490.722656 -808.105469 461.425781 
490.722656 -808.105469 466.308594 
314.941406 -778.808594 314.941406 
319.824219 -778.808594 314.941406 
314.941406 -773.925781 314.941406 
314.941406 -778.808594 319.824219 
319.824219 -773.925781 314.941406 
319.824219 -778.808594 319.824219 
314.941406 -773.925781 319.824219 
319.824219 -773.925781 319.824219 
324.707031 -778.808594 314.941406 
329.589844 -778.808594 314.941406 
324.707031 -773.925781 314.941406 
324.707031 -778.808594 319.824219 
329.589844 -773.925781 314.941406 
329.589844 -778.808594 319.824219 
324.707031 -773.925781 319.824219 
329.589844 -773.925781 319.824219 
314.941406 -769.042969 314.941406 
319.824219 -769.042969 314.941406 
314.941406 -764.160156 314.941406 
314.941406 -769.042969 319.824219 
319.824219 -764.160156 314.941406 
319.824219 -769.042969 319.824219 
314.941406 -764.160156 319.824219 
319.824219 -764.160156 319.824219 
314.941406 -778.808594 324.707031 
319.824219 -778.808594 324.707031 
314.941406 -773.925781 324.707031 
314.941406 -778.808594 329.589844 
319.824219 -773.925781 324.707031 
319.824219 -778.808594 329.589844 
314.941406 -773.925781 329.589844 
319.824219 -773.925781 329.589844 
324.707031 -769.042969 314.941406 
329.589844 -769.042969 314.941406 
324.707031 -764.160156 314.941406 
324.707031 -769.042969 319.824219 
329.589844 -764.160156 314.941406 
329.589844 -769.042969 319.824219 
324.707031 -764.160156 319.824219 
329.589844 -764.160156 319.824219 
324.707031 -778.808594 324.707031 
329.589844 -778.808594 324.707031 
324.707031 -773.925781 324.707031 
324.707031 -778.808594 329.589844 
329.589844 -773.925781 324.707031 
329.589844 -778.808594 329.589844 
324.707031 -773.925781 329.589844 
314.941406 -769.042969 324.707031 
319.824219 -769.042969 324.707031 
314.941406 -764.160156 324.707031 
319.824219 -764.160156 324.707031 
324.707031 -769.042969 324.707031 
329.589844 -769.042969 324.707031 
334.472656 -778.808594 314.941406 
339.355469 -778.808594 314.941406 
334.472656 -773.925781 314.941406 
334.472656 -778.808594 319.824219 
339.355469 -773.925781 314.941406 
339.355469 -778.808594 319.824219 
334.472656 -773.925781 319.824219 
339.355469 -773.925781 319.824219 
344.238281 -778.808594 314.941406 
349.121094 -778.808594 314.941406 
344.238281 -773.925781 314.941406 
344.238281 -778.808594 319.824219 
349.121094 -773.925781 314.941406 
349.121094 -778.808594 319.824219 
344.238281 -773.925781 319.824219 
349.121094 -773.925781 319.824219 
334.472656 -769.042969 314.941406 
339.355469 -769.042969 314.941406 
334.472656 -764.160156 314.941406 
334.472656 -769.042969 319.824219 
339.355469 -764.160156 314.941406 
339.355469 -769.042969 319.824219 
334.472656 -764.160156 319.824219 
339.355469 -764.160156 319.824219 
334.472656 -778.808594 324.707031 
339.355469 -778.808594 324.707031 
334.472656 -773.925781 324.707031 
334.472656 -778.808594 329.589844 
339.355469 -773.925781 324.707031 
339.355469 -778.808594 329.589844 
344.238281 -769.042969 314.941406 
349.121094 -769.042969 314.941406 
344.238281 -764.160156 314.941406 
344.238281 -769.042969 319.824219 
349.121094 -764.160156 314.941406 
349.121094 -769.042969 319.824219 
344.238281 -778.808594 324.707031 
349.121094 -778.808594 324.707031 
344.238281 -773.925781 324.707031 
349.121094 -773.925781 324.707031 
334.472656 -769.042969 324.707031 
314.941406 -759.277344 314.941406 
319.824219 -759.277344 314.941406 
314.941406 -754.394531 314.941406 
314.941406 -759.277344 319.824219 
319.824219 -754.394531 314.941406 
319.824219 -759.277344 319.824219 
324.707031 -759.277344 314.941406 
329.589844 -759.277344 314.941406 
324.707031 -754.394531 314.941406 
324.707031 -759.277344 319.824219 
329.589844 -754.394531 314.941406 
329.589844 -759.277344 319.824219 
314.941406 -749.511719 314.941406 
319.824219 -749.511719 314.941406 
324.707031 -749.511719 314.941406 
334.472656 -759.277344 314.941406 
339.355469 -759.277344 314.941406 
334.472656 -754.394531 314.941406 
339.355469 -754.394531 314.941406 
344.238281 -759.277344 314.941406 
354.003906 -778.808594 314.941406 
358.886719 -778.808594 314.941406 
354.003906 -773.925781 314.941406 
354.003906 -778.808594 319.824219 
358.886719 -773.925781 314.941406 
358.886719 -778.808594 319.824219 
354.003906 -773.925781 319.824219 
358.886719 -773.925781 319.824219 
363.769531 -778.808594 314.941406 
368.652344 -778.808594 314.941406 
363.769531 -773.925781 314.941406 
363.769531 -778.808594 319.824219 
368.652344 -773.925781 314.941406 
368.652344 -778.808594 319.824219 
363.769531 -773.925781 319.824219 
368.652344 -773.925781 319.824219 
354.003906 -769.042969 314.941406 
358.886719 -769.042969 314.941406 
354.003906 -764.160156 314.941406 
354.003906 -769.042969 319.824219 
358.886719 -764.160156 314.941406 
358.886719 -769.042969 319.824219 
354.003906 -778.808594 324.707031 
358.886719 -778.808594 324.707031 
363.769531 -769.042969 314.941406 
368.652344 -769.042969 314.941406 
363.769531 -778.808594 324.707031 
368.652344 -778.808594 324.707031 
363.769531 -778.808594 329.589844 
368.652344 -778.808594 329.589844 
373.535156 -778.808594 314.941406 
378.417969 -778.808594 314.941406 
373.535156 -773.925781 314.941406 
373.535156 -778.808594 319.824219 
378.417969 -773.925781 314.941406 
378.417969 -778.808594 319.824219 
383.300781 -778.808594 314.941406 
388.183594 -778.808594 314.941406 
383.300781 -773.925781 314.941406 
383.300781 -778.808594 319.824219 
388.183594 -773.925781 314.941406 
388.183594 -778.808594 319.824219 
383.300781 -773.925781 319.824219 
373.535156 -769.042969 314.941406 
378.417969 -769.042969 314.941406 
373.535156 -778.808594 324.707031 
378.417969 -778.808594 324.707031 
373.535156 -778.808594 329.589844 
378.417969 -778.808594 329.589844 
383.300781 -778.808594 324.707031 
388.183594 -778.808594 324.707031 
383.300781 -773.925781 324.707031 
383.300781 -778.808594 329.589844 
388.183594 -778.808594 329.589844 
368.652344 -778.808594 334.472656 
368.652344 -778.808594 339.355469 
373.535156 -778.808594 334.472656 
378.417969 -778.808594 334.472656 
373.535156 -778.808594 339.355469 
378.417969 -778.808594 339.355469 
383.300781 -778.808594 334.472656 
388.183594 -778.808594 334.472656 
383.300781 -778.808594 339.355469 
388.183594 -773.925781 334.472656 
388.183594 -778.808594 339.355469 
383.300781 -778.808594 344.238281 
388.183594 -778.808594 344.238281 
393.066406 -778.808594 314.941406 
397.949219 -778.808594 314.941406 
393.066406 -773.925781 314.941406 
393.066406 -778.808594 319.824219 
397.949219 -773.925781 314.941406 
397.949219 -778.808594 319.824219 
393.066406 -773.925781 319.824219 
397.949219 -773.925781 319.824219 
402.832031 -778.808594 314.941406 
407.714844 -778.808594 314.941406 
402.832031 -773.925781 314.941406 
402.832031 -778.808594 319.824219 
407.714844 -778.808594 319.824219 
402.832031 -773.925781 319.824219 
407.714844 -773.925781 319.824219 
393.066406 -778.808594 324.707031 
397.949219 -778.808594 324.707031 
393.066406 -778.808594 329.589844 
397.949219 -773.925781 324.707031 
397.949219 -778.808594 329.589844 
402.832031 -778.808594 324.707031 
407.714844 -778.808594 324.707031 
402.832031 -773.925781 324.707031 
402.832031 -778.808594 329.589844 
407.714844 -773.925781 324.707031 
407.714844 -778.808594 329.589844 
402.832031 -773.925781 329.589844 
407.714844 -773.925781 329.589844 
412.597656 -778.808594 324.707031 
412.597656 -778.808594 329.589844 
402.832031 -778.808594 334.472656 
407.714844 -778.808594 334.472656 
402.832031 -773.925781 334.472656 
402.832031 -778.808594 339.355469 
407.714844 -773.925781 334.472656 
407.714844 -778.808594 339.355469 
407.714844 -773.925781 339.355469 
393.066406 -778.808594 344.238281 
407.714844 -778.808594 344.238281 
412.597656 -778.808594 334.472656 
412.597656 -778.808594 339.355469 
412.597656 -778.808594 344.238281 
417.480469 -778.808594 344.238281 
412.597656 -773.925781 344.238281 
412.597656 -778.808594 349.121094 
417.480469 -778.808594 349.121094 
412.597656 -773.925781 349.121094 
378.417969 -827.636719 471.191406 
383.300781 -827.636719 471.191406 
388.183594 -827.636719 471.191406 
383.300781 -822.753906 471.191406 
383.300781 -827.636719 476.074219 
388.183594 -822.753906 471.191406 
388.183594 -827.636719 476.074219 
383.300781 -827.636719 480.957031 
388.183594 -827.636719 480.957031 
388.183594 -827.636719 485.839844 
397.949219 -832.519531 471.191406 
402.832031 -832.519531 471.191406 
407.714844 -832.519531 471.191406 
402.832031 -832.519531 476.074219 
407.714844 -832.519531 476.074219 
393.066406 -827.636719 471.191406 
397.949219 -827.636719 471.191406 
393.066406 -822.753906 471.191406 
393.066406 -827.636719 476.074219 
397.949219 -822.753906 471.191406 
397.949219 -827.636719 476.074219 
402.832031 -827.636719 471.191406 
407.714844 -827.636719 471.191406 
402.832031 -827.636719 476.074219 
407.714844 -832.519531 480.957031 
393.066406 -827.636719 480.957031 
397.949219 -827.636719 480.957031 
393.066406 -827.636719 485.839844 
412.597656 -832.519531 471.191406 
412.597656 -832.519531 476.074219 
417.480469 -832.519531 476.074219 
412.597656 -827.636719 471.191406 
412.597656 -827.636719 476.074219 
412.597656 -832.519531 480.957031 
417.480469 -832.519531 480.957031 
412.597656 -832.519531 485.839844 
417.480469 -832.519531 485.839844 
422.363281 -832.519531 485.839844 
417.480469 -827.636719 480.957031 
417.480469 -827.636719 485.839844 
417.480469 -832.519531 490.722656 
422.363281 -832.519531 490.722656 
422.363281 -832.519531 495.605469 
422.363281 -832.519531 500.488281 
461.425781 -832.519531 471.191406 
466.308594 -832.519531 471.191406 
466.308594 -832.519531 476.074219 
466.308594 -827.636719 471.191406 
461.425781 -822.753906 471.191406 
466.308594 -822.753906 471.191406 
466.308594 -827.636719 476.074219 
466.308594 -822.753906 476.074219 
466.308594 -827.636719 480.957031 
466.308594 -822.753906 480.957031 
461.425781 -817.871094 471.191406 
466.308594 -817.871094 471.191406 
461.425781 -812.988281 471.191406 
466.308594 -812.988281 471.191406 
466.308594 -817.871094 476.074219 
466.308594 -817.871094 480.957031 
471.191406 -837.402344 471.191406 
476.074219 -837.402344 471.191406 
471.191406 -832.519531 471.191406 
476.074219 -832.519531 471.191406 
476.074219 -837.402344 476.074219 
471.191406 -832.519531 476.074219 
476.074219 -832.519531 476.074219 
480.957031 -832.519531 476.074219 
471.191406 -827.636719 471.191406 
476.074219 -827.636719 471.191406 
471.191406 -822.753906 471.191406 
471.191406 -827.636719 476.074219 
476.074219 -822.753906 471.191406 
476.074219 -827.636719 476.074219 
471.191406 -822.753906 476.074219 
476.074219 -822.753906 476.074219 
471.191406 -832.519531 480.957031 
476.074219 -832.519531 480.957031 
476.074219 -832.519531 485.839844 
480.957031 -827.636719 471.191406 
480.957031 -822.753906 471.191406 
480.957031 -827.636719 476.074219 
485.839844 -822.753906 471.191406 
480.957031 -822.753906 476.074219 
485.839844 -822.753906 476.074219 
480.957031 -832.519531 480.957031 
480.957031 -832.519531 485.839844 
471.191406 -827.636719 480.957031 
476.074219 -827.636719 480.957031 
471.191406 -822.753906 480.957031 
471.191406 -827.636719 485.839844 
476.074219 -822.753906 480.957031 
476.074219 -827.636719 485.839844 
471.191406 -822.753906 485.839844 
476.074219 -822.753906 485.839844 
480.957031 -827.636719 480.957031 
480.957031 -822.753906 480.957031 
480.957031 -827.636719 485.839844 
485.839844 -822.753906 480.957031 
480.957031 -822.753906 485.839844 
485.839844 -822.753906 485.839844 
480.957031 -832.519531 490.722656 
471.191406 -827.636719 490.722656 
476.074219 -827.636719 490.722656 
471.191406 -822.753906 490.722656 
471.191406 -827.636719 495.605469 
476.074219 -822.753906 490.722656 
476.074219 -827.636719 495.605469 
471.191406 -822.753906 495.605469 
476.074219 -822.753906 495.605469 
480.957031 -827.636719 490.722656 
485.839844 -827.636719 490.722656 
480.957031 -822.753906 490.722656 
480.957031 -827.636719 495.605469 
485.839844 -822.753906 490.722656 
485.839844 -827.636719 495.605469 
480.957031 -822.753906 495.605469 
485.839844 -822.753906 495.605469 
476.074219 -827.636719 500.488281 
476.074219 -822.753906 500.488281 
476.074219 -827.636719 505.371094 
476.074219 -822.753906 505.371094 
480.957031 -827.636719 500.488281 
485.839844 -827.636719 500.488281 
480.957031 -822.753906 500.488281 
480.957031 -827.636719 505.371094 
485.839844 -822.753906 500.488281 
485.839844 -827.636719 505.371094 
480.957031 -822.753906 505.371094 
485.839844 -822.753906 505.371094 
490.722656 -822.753906 495.605469 
490.722656 -822.753906 500.488281 
490.722656 -822.753906 505.371094 
471.191406 -817.871094 471.191406 
476.074219 -817.871094 471.191406 
471.191406 -812.988281 471.191406 
471.191406 -817.871094 476.074219 
476.074219 -812.988281 471.191406 
476.074219 -817.871094 476.074219 
476.074219 -812.988281 476.074219 
480.957031 -817.871094 471.191406 
485.839844 -817.871094 471.191406 
480.957031 -812.988281 471.191406 
480.957031 -817.871094 476.074219 
485.839844 -812.988281 471.191406 
485.839844 -817.871094 476.074219 
480.957031 -812.988281 476.074219 
485.839844 -812.988281 476.074219 
476.074219 -808.105469 471.191406 
476.074219 -808.105469 476.074219 
471.191406 -817.871094 480.957031 
476.074219 -817.871094 480.957031 
471.191406 -817.871094 485.839844 
476.074219 -812.988281 480.957031 
476.074219 -817.871094 485.839844 
476.074219 -812.988281 485.839844 
480.957031 -808.105469 471.191406 
485.839844 -808.105469 471.191406 
480.957031 -808.105469 476.074219 
485.839844 -808.105469 476.074219 
480.957031 -817.871094 480.957031 
485.839844 -817.871094 480.957031 
480.957031 -812.988281 480.957031 
480.957031 -817.871094 485.839844 
485.839844 -812.988281 480.957031 
485.839844 -817.871094 485.839844 
480.957031 -812.988281 485.839844 
485.839844 -812.988281 485.839844 
476.074219 -808.105469 480.957031 
476.074219 -808.105469 485.839844 
480.957031 -808.105469 480.957031 
485.839844 -808.105469 480.957031 
480.957031 -808.105469 485.839844 
485.839844 -808.105469 485.839844 
490.722656 -817.871094 471.191406 
490.722656 -812.988281 471.191406 
490.722656 -817.871094 476.074219 
490.722656 -812.988281 476.074219 
490.722656 -808.105469 471.191406 
490.722656 -803.222656 471.191406 
490.722656 -808.105469 476.074219 
490.722656 -803.222656 476.074219 
490.722656 -817.871094 480.957031 
490.722656 -812.988281 480.957031 
490.722656 -817.871094 485.839844 
495.605469 -812.988281 480.957031 
490.722656 -812.988281 485.839844 
495.605469 -812.988281 485.839844 
490.722656 -808.105469 480.957031 
495.605469 -808.105469 480.957031 
490.722656 -803.222656 480.957031 
490.722656 -808.105469 485.839844 
495.605469 -808.105469 485.839844 
471.191406 -817.871094 490.722656 
476.074219 -817.871094 490.722656 
471.191406 -817.871094 495.605469 
476.074219 -812.988281 490.722656 
476.074219 -817.871094 495.605469 
476.074219 -812.988281 495.605469 
480.957031 -817.871094 490.722656 
485.839844 -817.871094 490.722656 
480.957031 -812.988281 490.722656 
480.957031 -817.871094 495.605469 
485.839844 -812.988281 490.722656 
485.839844 -817.871094 495.605469 
480.957031 -812.988281 495.605469 
485.839844 -812.988281 495.605469 
476.074219 -808.105469 490.722656 
476.074219 -817.871094 500.488281 
476.074219 -812.988281 500.488281 
476.074219 -817.871094 505.371094 
476.074219 -812.988281 505.371094 
480.957031 -808.105469 490.722656 
485.839844 -808.105469 490.722656 
480.957031 -808.105469 495.605469 
485.839844 -808.105469 495.605469 
480.957031 -817.871094 500.488281 
485.839844 -817.871094 500.488281 
480.957031 -812.988281 500.488281 
480.957031 -817.871094 505.371094 
485.839844 -812.988281 500.488281 
485.839844 -817.871094 505.371094 
480.957031 -812.988281 505.371094 
485.839844 -812.988281 505.371094 
476.074219 -808.105469 500.488281 
480.957031 -808.105469 500.488281 
485.839844 -808.105469 500.488281 
485.839844 -808.105469 505.371094 
490.722656 -817.871094 490.722656 
490.722656 -812.988281 490.722656 
490.722656 -817.871094 495.605469 
495.605469 -812.988281 490.722656 
495.605469 -817.871094 495.605469 
490.722656 -812.988281 495.605469 
495.605469 -812.988281 495.605469 
490.722656 -808.105469 490.722656 
495.605469 -808.105469 490.722656 
490.722656 -808.105469 495.605469 
495.605469 -808.105469 495.605469 
490.722656 -817.871094 500.488281 
495.605469 -817.871094 500.488281 
490.722656 -812.988281 500.488281 
490.722656 -817.871094 505.371094 
495.605469 -812.988281 500.488281 
495.605469 -817.871094 505.371094 
490.722656 -812.988281 505.371094 
495.605469 -812.988281 505.371094 
500.488281 -812.988281 500.488281 
500.488281 -812.988281 505.371094 
490.722656 -808.105469 500.488281 
495.605469 -808.105469 500.488281 
490.722656 -808.105469 505.371094 
495.605469 -808.105469 505.371094 
500.488281 -808.105469 500.488281 
500.488281 -808.105469 505.371094 
480.957031 -827.636719 510.253906 
485.839844 -827.636719 510.253906 
480.957031 -822.753906 510.253906 
480.957031 -827.636719 515.136719 
485.839844 -822.753906 510.253906 
485.839844 -827.636719 515.136719 
480.957031 -822.753906 515.136719 
485.839844 -822.753906 515.136719 
485.839844 -832.519531 524.902344 
480.957031 -827.636719 520.019531 
485.839844 -827.636719 520.019531 
480.957031 -822.753906 520.019531 
485.839844 -822.753906 520.019531 
485.839844 -827.636719 524.902344 
485.839844 -822.753906 524.902344 
490.722656 -822.753906 510.253906 
490.722656 -827.636719 515.136719 
490.722656 -822.753906 515.136719 
490.722656 -827.636719 520.019531 
490.722656 -822.753906 520.019531 
490.722656 -827.636719 524.902344 
495.605469 -822.753906 520.019531 
490.722656 -822.753906 524.902344 
495.605469 -822.753906 524.902344 
485.839844 -832.519531 529.785156 
485.839844 -827.636719 529.785156 
485.839844 -822.753906 529.785156 
490.722656 -832.519531 529.785156 
490.722656 -832.519531 534.667969 
490.722656 -827.636719 529.785156 
490.722656 -822.753906 529.785156 
490.722656 -827.636719 534.667969 
495.605469 -822.753906 529.785156 
495.605469 -827.636719 534.667969 
490.722656 -822.753906 534.667969 
495.605469 -822.753906 534.667969 
490.722656 -827.636719 539.550781 
495.605469 -827.636719 539.550781 
490.722656 -822.753906 539.550781 
490.722656 -827.636719 544.433594 
495.605469 -822.753906 539.550781 
495.605469 -827.636719 544.433594 
490.722656 -822.753906 544.433594 
495.605469 -822.753906 544.433594 
500.488281 -822.753906 539.550781 
500.488281 -822.753906 544.433594 
476.074219 -812.988281 510.253906 
480.957031 -817.871094 510.253906 
485.839844 -817.871094 510.253906 
480.957031 -812.988281 510.253906 
480.957031 -817.871094 515.136719 
485.839844 -812.988281 510.253906 
485.839844 -817.871094 515.136719 
480.957031 -812.988281 515.136719 
485.839844 -812.988281 515.136719 
485.839844 -808.105469 510.253906 
480.957031 -808.105469 515.136719 
485.839844 -808.105469 515.136719 
480.957031 -817.871094 520.019531 
485.839844 -817.871094 520.019531 
480.957031 -812.988281 520.019531 
485.839844 -812.988281 520.019531 
485.839844 -817.871094 524.902344 
485.839844 -812.988281 524.902344 
480.957031 -808.105469 520.019531 
490.722656 -817.871094 510.253906 
495.605469 -817.871094 510.253906 
490.722656 -812.988281 510.253906 
490.722656 -817.871094 515.136719 
495.605469 -812.988281 510.253906 
495.605469 -817.871094 515.136719 
490.722656 -812.988281 515.136719 
495.605469 -812.988281 515.136719 
500.488281 -812.988281 510.253906 
500.488281 -812.988281 515.136719 
490.722656 -808.105469 510.253906 
495.605469 -808.105469 510.253906 
490.722656 -808.105469 515.136719 
495.605469 -808.105469 515.136719 
490.722656 -817.871094 520.019531 
495.605469 -817.871094 520.019531 
490.722656 -812.988281 520.019531 
490.722656 -817.871094 524.902344 
495.605469 -812.988281 520.019531 
495.605469 -817.871094 524.902344 
490.722656 -812.988281 524.902344 
495.605469 -812.988281 524.902344 
500.488281 -808.105469 510.253906 
505.371094 -808.105469 510.253906 
500.488281 -808.105469 515.136719 
505.371094 -808.105469 515.136719 
500.488281 -812.988281 520.019531 
500.488281 -817.871094 524.902344 
500.488281 -812.988281 524.902344 
505.371094 -812.988281 524.902344 
490.722656 -808.105469 520.019531 
495.605469 -808.105469 520.019531 
490.722656 -808.105469 524.902344 
495.605469 -808.105469 524.902344 
500.488281 -808.105469 520.019531 
505.371094 -808.105469 520.019531 
500.488281 -808.105469 524.902344 
505.371094 -808.105469 524.902344 
485.839844 -817.871094 529.785156 
485.839844 -812.988281 529.785156 
485.839844 -817.871094 534.667969 
485.839844 -812.988281 534.667969 
490.722656 -817.871094 529.785156 
495.605469 -817.871094 529.785156 
490.722656 -812.988281 529.785156 
490.722656 -817.871094 534.667969 
495.605469 -812.988281 529.785156 
495.605469 -817.871094 534.667969 
490.722656 -812.988281 534.667969 
495.605469 -812.988281 534.667969 
500.488281 -817.871094 529.785156 
500.488281 -812.988281 529.785156 
500.488281 -817.871094 534.667969 
505.371094 -812.988281 529.785156 
500.488281 -812.988281 534.667969 
505.371094 -812.988281 534.667969 
490.722656 -808.105469 529.785156 
495.605469 -808.105469 529.785156 
490.722656 -808.105469 534.667969 
495.605469 -808.105469 534.667969 
490.722656 -817.871094 539.550781 
495.605469 -817.871094 539.550781 
495.605469 -812.988281 539.550781 
495.605469 -817.871094 544.433594 
500.488281 -808.105469 529.785156 
505.371094 -808.105469 529.785156 
500.488281 -808.105469 534.667969 
505.371094 -808.105469 534.667969 
500.488281 -817.871094 539.550781 
505.371094 -817.871094 539.550781 
500.488281 -812.988281 539.550781 
500.488281 -817.871094 544.433594 
505.371094 -812.988281 539.550781 
505.371094 -817.871094 544.433594 
500.488281 -812.988281 544.433594 
505.371094 -812.988281 544.433594 
495.605469 -808.105469 539.550781 
495.605469 -808.105469 544.433594 
500.488281 -808.105469 539.550781 
505.371094 -808.105469 539.550781 
500.488281 -808.105469 544.433594 
505.371094 -808.105469 544.433594 
510.253906 -808.105469 524.902344 
510.253906 -812.988281 534.667969 
510.253906 -808.105469 529.785156 
510.253906 -808.105469 534.667969 
515.136719 -808.105469 534.667969 
510.253906 -812.988281 539.550781 
510.253906 -812.988281 544.433594 
510.253906 -808.105469 539.550781 
515.136719 -808.105469 539.550781 
510.253906 -808.105469 544.433594 
515.136719 -808.105469 544.433594 
495.605469 -827.636719 549.316406 
495.605469 -827.636719 554.199219 
500.488281 -817.871094 549.316406 
505.371094 -817.871094 549.316406 
505.371094 -812.988281 549.316406 
505.371094 -817.871094 554.199219 
500.488281 -808.105469 549.316406 
505.371094 -808.105469 549.316406 
505.371094 -808.105469 554.199219 
510.253906 -812.988281 549.316406 
510.253906 -817.871094 554.199219 
515.136719 -812.988281 549.316406 
515.136719 -812.988281 554.199219 
510.253906 -808.105469 549.316406 
515.136719 -808.105469 549.316406 
510.253906 -808.105469 554.199219 
515.136719 -808.105469 554.199219 
510.253906 -817.871094 559.082031 
515.136719 -812.988281 559.082031 
520.019531 -808.105469 549.316406 
520.019531 -808.105469 554.199219 
510.253906 -808.105469 559.082031 
515.136719 -808.105469 559.082031 
515.136719 -808.105469 563.964844 
520.019531 -808.105469 559.082031 
524.902344 -808.105469 559.082031 
520.019531 -808.105469 563.964844 
524.902344 -808.105469 563.964844 
520.019531 -808.105469 568.847656 
524.902344 -808.105469 568.847656 
529.785156 -808.105469 578.613281 
2.441406 -622.558594 2.441406 
7.324219 -622.558594 2.441406 
2.441406 -617.675781 2.441406 
2.441406 -622.558594 7.324219 
7.324219 -617.675781 2.441406 
7.324219 -622.558594 7.324219 
2.441406 -617.675781 7.324219 
7.324219 -617.675781 7.324219 
12.207031 -617.675781 2.441406 
12.207031 -617.675781 7.324219 
17.089844 -617.675781 7.324219 
2.441406 -612.792969 2.441406 
7.324219 -612.792969 2.441406 
2.441406 -607.910156 2.441406 
2.441406 -612.792969 7.324219 
7.324219 -607.910156 2.441406 
7.324219 -612.792969 7.324219 
2.441406 -607.910156 7.324219 
7.324219 -607.910156 7.324219 
2.441406 -622.558594 12.207031 
7.324219 -622.558594 12.207031 
2.441406 -617.675781 12.207031 
2.441406 -622.558594 17.089844 
7.324219 -617.675781 12.207031 
7.324219 -622.558594 17.089844 
2.441406 -617.675781 17.089844 
7.324219 -617.675781 17.089844 
12.207031 -612.792969 2.441406 
17.089844 -612.792969 2.441406 
12.207031 -607.910156 2.441406 
12.207031 -612.792969 7.324219 
17.089844 -607.910156 2.441406 
17.089844 -612.792969 7.324219 
12.207031 -607.910156 7.324219 
17.089844 -607.910156 7.324219 
12.207031 -617.675781 12.207031 
12.207031 -622.558594 17.089844 
17.089844 -617.675781 12.207031 
12.207031 -617.675781 17.089844 
17.089844 -617.675781 17.089844 
2.441406 -612.792969 12.207031 
7.324219 -612.792969 12.207031 
2.441406 -607.910156 12.207031 
2.441406 -612.792969 17.089844 
7.324219 -607.910156 12.207031 
7.324219 -612.792969 17.089844 
2.441406 -607.910156 17.089844 
7.324219 -607.910156 17.089844 
12.207031 -612.792969 12.207031 
17.089844 -612.792969 12.207031 
12.207031 -607.910156 12.207031 
12.207031 -612.792969 17.089844 
17.089844 -607.910156 12.207031 
17.089844 -612.792969 17.089844 
12.207031 -607.910156 17.089844 
17.089844 -607.910156 17.089844 
21.972656 -612.792969 2.441406 
21.972656 -607.910156 2.441406 
21.972656 -612.792969 7.324219 
26.855469 -607.910156 2.441406 
21.972656 -607.910156 7.324219 
26.855469 -607.910156 7.324219 
31.738281 -612.792969 2.441406 
31.738281 -607.910156 7.324219 
36.621094 -607.910156 7.324219 
21.972656 -612.792969 12.207031 
21.972656 -607.910156 12.207031 
21.972656 -612.792969 17.089844 
26.855469 -607.910156 12.207031 
21.972656 -607.910156 17.089844 
26.855469 -607.910156 17.089844 
31.738281 -607.910156 12.207031 
36.621094 -607.910156 12.207031 
31.738281 -607.910156 17.089844 
7.324219 -603.027344 2.441406 
2.441406 -603.027344 7.324219 
7.324219 -603.027344 7.324219 
12.207031 -603.027344 2.441406 
17.089844 -603.027344 2.441406 
12.207031 -603.027344 7.324219 
17.089844 -603.027344 7.324219 
7.324219 -603.027344 12.207031 
7.324219 -603.027344 17.089844 
12.207031 -603.027344 12.207031 
17.089844 -603.027344 12.207031 
12.207031 -603.027344 17.089844 
17.089844 -603.027344 17.089844 
12.207031 -598.144531 17.089844 
17.089844 -598.144531 17.089844 
17.089844 -593.261719 17.089844 
2.441406 -622.558594 21.972656 
7.324219 -622.558594 21.972656 
2.441406 -617.675781 21.972656 
2.441406 -622.558594 26.855469 
7.324219 -617.675781 21.972656 
7.324219 -622.558594 26.855469 
2.441406 -617.675781 26.855469 
7.324219 -617.675781 26.855469 
12.207031 -622.558594 21.972656 
12.207031 -617.675781 21.972656 
12.207031 -617.675781 26.855469 
2.441406 -612.792969 21.972656 
7.324219 -612.792969 21.972656 
2.441406 -607.910156 21.972656 
2.441406 -612.792969 26.855469 
7.324219 -607.910156 21.972656 
7.324219 -612.792969 26.855469 
2.441406 -607.910156 26.855469 
7.324219 -607.910156 26.855469 
2.441406 -622.558594 31.738281 
2.441406 -617.675781 31.738281 
2.441406 -622.558594 36.621094 
7.324219 -617.675781 31.738281 
2.441406 -617.675781 36.621094 
7.324219 -617.675781 36.621094 
12.207031 -612.792969 21.972656 
17.089844 -612.792969 21.972656 
12.207031 -607.910156 21.972656 
12.207031 -612.792969 26.855469 
17.089844 -607.910156 21.972656 
17.089844 -612.792969 26.855469 
12.207031 -607.910156 26.855469 
17.089844 -607.910156 26.855469 
12.207031 -617.675781 31.738281 
12.207031 -617.675781 36.621094 
2.441406 -612.792969 31.738281 
7.324219 -612.792969 31.738281 
2.441406 -607.910156 31.738281 
2.441406 -612.792969 36.621094 
7.324219 -607.910156 31.738281 
7.324219 -612.792969 36.621094 
2.441406 -607.910156 36.621094 
7.324219 -607.910156 36.621094 
12.207031 -612.792969 31.738281 
17.089844 -612.792969 31.738281 
12.207031 -607.910156 31.738281 
12.207031 -612.792969 36.621094 
17.089844 -607.910156 31.738281 
17.089844 -612.792969 36.621094 
12.207031 -607.910156 36.621094 
17.089844 -607.910156 36.621094 
21.972656 -603.027344 2.441406 
26.855469 -603.027344 2.441406 
21.972656 -603.027344 7.324219 
26.855469 -603.027344 7.324219 
31.738281 -603.027344 7.324219 
36.621094 -603.027344 7.324219 
31.738281 -598.144531 7.324219 
21.972656 -603.027344 12.207031 
26.855469 -603.027344 12.207031 
21.972656 -603.027344 17.089844 
26.855469 -598.144531 12.207031 
26.855469 -603.027344 17.089844 
21.972656 -598.144531 17.089844 
26.855469 -598.144531 17.089844 
31.738281 -603.027344 12.207031 
36.621094 -603.027344 12.207031 
31.738281 -598.144531 12.207031 
31.738281 -603.027344 17.089844 
36.621094 -598.144531 12.207031 
36.621094 -603.027344 17.089844 
31.738281 -598.144531 17.089844 
36.621094 -598.144531 17.089844 
21.972656 -593.261719 17.089844 
26.855469 -593.261719 17.089844 
21.972656 -588.378906 17.089844 
26.855469 -588.378906 17.089844 
31.738281 -593.261719 12.207031 
36.621094 -593.261719 12.207031 
31.738281 -593.261719 17.089844 
36.621094 -593.261719 17.089844 
31.738281 -588.378906 17.089844 
36.621094 -588.378906 17.089844 
36.621094 -622.558594 26.855469 
21.972656 -612.792969 21.972656 
26.855469 -612.792969 21.972656 
21.972656 -607.910156 21.972656 
21.972656 -612.792969 26.855469 
26.855469 -607.910156 21.972656 
21.972656 -607.910156 26.855469 
26.855469 -607.910156 26.855469 
31.738281 -607.910156 21.972656 
31.738281 -622.558594 31.738281 
36.621094 -622.558594 31.738281 
31.738281 -622.558594 36.621094 
36.621094 -622.558594 36.621094 
36.621094 -617.675781 36.621094 
21.972656 -612.792969 31.738281 
21.972656 -607.910156 31.738281 
2.441406 -603.027344 21.972656 
7.324219 -603.027344 21.972656 
2.441406 -598.144531 21.972656 
2.441406 -603.027344 26.855469 
7.324219 -598.144531 21.972656 
7.324219 -603.027344 26.855469 
2.441406 -598.144531 26.855469 
7.324219 -598.144531 26.855469 
12.207031 -603.027344 21.972656 
17.089844 -603.027344 21.972656 
12.207031 -598.144531 21.972656 
12.207031 -603.027344 26.855469 
17.089844 -598.144531 21.972656 
17.089844 -603.027344 26.855469 
12.207031 -598.144531 26.855469 
17.089844 -598.144531 26.855469 
2.441406 -593.261719 21.972656 
7.324219 -593.261719 21.972656 
2.441406 -593.261719 26.855469 
7.324219 -593.261719 26.855469 
2.441406 -588.378906 26.855469 
7.324219 -588.378906 26.855469 
2.441406 -603.027344 31.738281 
7.324219 -603.027344 31.738281 
2.441406 -598.144531 31.738281 
2.441406 -603.027344 36.621094 
7.324219 -598.144531 31.738281 
7.324219 -603.027344 36.621094 
2.441406 -598.144531 36.621094 
7.324219 -598.144531 36.621094 
12.207031 -593.261719 21.972656 
17.089844 -593.261719 21.972656 
12.207031 -588.378906 21.972656 
12.207031 -593.261719 26.855469 
17.089844 -588.378906 21.972656 
17.089844 -593.261719 26.855469 
12.207031 -588.378906 26.855469 
17.089844 -588.378906 26.855469 
12.207031 -603.027344 31.738281 
17.089844 -603.027344 31.738281 
12.207031 -598.144531 31.738281 
12.207031 -603.027344 36.621094 
17.089844 -598.144531 31.738281 
17.089844 -603.027344 36.621094 
12.207031 -598.144531 36.621094 
17.089844 -598.144531 36.621094 
2.441406 -593.261719 31.738281 
7.324219 -593.261719 31.738281 
2.441406 -593.261719 36.621094 
7.324219 -588.378906 31.738281 
7.324219 -593.261719 36.621094 
7.324219 -588.378906 36.621094 
12.207031 -593.261719 31.738281 
17.089844 -593.261719 31.738281 
12.207031 -588.378906 31.738281 
12.207031 -593.261719 36.621094 
17.089844 -588.378906 31.738281 
17.089844 -593.261719 36.621094 
12.207031 -588.378906 36.621094 
17.089844 -588.378906 36.621094 
21.972656 -603.027344 21.972656 
26.855469 -603.027344 21.972656 
21.972656 -598.144531 21.972656 
21.972656 -603.027344 26.855469 
26.855469 -598.144531 21.972656 
26.855469 -603.027344 26.855469 
21.972656 -598.144531 26.855469 
26.855469 -598.144531 26.855469 
31.738281 -603.027344 21.972656 
31.738281 -598.144531 21.972656 
31.738281 -603.027344 26.855469 
36.621094 -598.144531 21.972656 
31.738281 -598.144531 26.855469 
21.972656 -593.261719 21.972656 
26.855469 -593.261719 21.972656 
21.972656 -588.378906 21.972656 
21.972656 -593.261719 26.855469 
26.855469 -588.378906 21.972656 
26.855469 -593.261719 26.855469 
21.972656 -588.378906 26.855469 
26.855469 -588.378906 26.855469 
21.972656 -603.027344 31.738281 
26.855469 -603.027344 31.738281 
21.972656 -598.144531 31.738281 
21.972656 -603.027344 36.621094 
26.855469 -598.144531 31.738281 
21.972656 -598.144531 36.621094 
26.855469 -598.144531 36.621094 
31.738281 -593.261719 21.972656 
36.621094 -593.261719 21.972656 
31.738281 -588.378906 21.972656 
31.738281 -593.261719 26.855469 
36.621094 -588.378906 21.972656 
36.621094 -593.261719 26.855469 
31.738281 -588.378906 26.855469 
36.621094 -588.378906 26.855469 
31.738281 -598.144531 31.738281 
21.972656 -593.261719 31.738281 
26.855469 -593.261719 31.738281 
21.972656 -588.378906 31.738281 
21.972656 -593.261719 36.621094 
26.855469 -588.378906 31.738281 
26.855469 -593.261719 36.621094 
21.972656 -588.378906 36.621094 
26.855469 -588.378906 36.621094 
31.738281 -593.261719 31.738281 
36.621094 -593.261719 31.738281 
31.738281 -588.378906 31.738281 
31.738281 -593.261719 36.621094 
31.738281 -588.378906 36.621094 
36.621094 -588.378906 36.621094 
41.503906 -598.144531 17.089844 
41.503906 -593.261719 17.089844 
41.503906 -622.558594 21.972656 
41.503906 -622.558594 26.855469 
41.503906 -617.675781 26.855469 
46.386719 -617.675781 26.855469 
56.152344 -622.558594 21.972656 
56.152344 -617.675781 21.972656 
46.386719 -612.792969 26.855469 
41.503906 -622.558594 31.738281 
46.386719 -622.558594 31.738281 
41.503906 -617.675781 31.738281 
41.503906 -622.558594 36.621094 
46.386719 -617.675781 31.738281 
46.386719 -622.558594 36.621094 
41.503906 -617.675781 36.621094 
46.386719 -617.675781 36.621094 
56.152344 -612.792969 21.972656 
51.269531 -607.910156 26.855469 
56.152344 -607.910156 26.855469 
51.269531 -617.675781 36.621094 
46.386719 -612.792969 31.738281 
41.503906 -612.792969 36.621094 
46.386719 -612.792969 36.621094 
46.386719 -607.910156 36.621094 
51.269531 -612.792969 31.738281 
51.269531 -607.910156 31.738281 
51.269531 -612.792969 36.621094 
56.152344 -612.792969 36.621094 
51.269531 -607.910156 36.621094 
56.152344 -607.910156 36.621094 
61.035156 -612.792969 26.855469 
61.035156 -612.792969 31.738281 
61.035156 -607.910156 31.738281 
61.035156 -612.792969 36.621094 
61.035156 -607.910156 36.621094 
56.152344 -603.027344 26.855469 
41.503906 -593.261719 21.972656 
41.503906 -588.378906 21.972656 
41.503906 -588.378906 26.855469 
46.386719 -588.378906 26.855469 
46.386719 -603.027344 36.621094 
51.269531 -603.027344 31.738281 
56.152344 -603.027344 31.738281 
51.269531 -603.027344 36.621094 
56.152344 -598.144531 31.738281 
56.152344 -603.027344 36.621094 
51.269531 -598.144531 36.621094 
56.152344 -598.144531 36.621094 
41.503906 -588.378906 31.738281 
56.152344 -593.261719 31.738281 
56.152344 -593.261719 36.621094 
61.035156 -603.027344 31.738281 
61.035156 -603.027344 36.621094 
65.917969 -603.027344 36.621094 
61.035156 -598.144531 36.621094 
61.035156 -593.261719 36.621094 
61.035156 -588.378906 36.621094 
31.738281 -583.496094 17.089844 
36.621094 -583.496094 17.089844 
36.621094 -578.613281 17.089844 
7.324219 -583.496094 26.855469 
17.089844 -583.496094 21.972656 
12.207031 -583.496094 26.855469 
17.089844 -583.496094 26.855469 
12.207031 -578.613281 26.855469 
17.089844 -578.613281 26.855469 
7.324219 -583.496094 31.738281 
7.324219 -583.496094 36.621094 
12.207031 -573.730469 26.855469 
17.089844 -573.730469 26.855469 
12.207031 -583.496094 31.738281 
17.089844 -583.496094 31.738281 
12.207031 -578.613281 31.738281 
12.207031 -583.496094 36.621094 
17.089844 -578.613281 31.738281 
17.089844 -583.496094 36.621094 
12.207031 -578.613281 36.621094 
17.089844 -578.613281 36.621094 
17.089844 -573.730469 31.738281 
17.089844 -568.847656 31.738281 
17.089844 -573.730469 36.621094 
21.972656 -583.496094 21.972656 
26.855469 -583.496094 21.972656 
21.972656 -583.496094 26.855469 
26.855469 -578.613281 21.972656 
26.855469 -583.496094 26.855469 
21.972656 -578.613281 26.855469 
26.855469 -578.613281 26.855469 
31.738281 -583.496094 21.972656 
36.621094 -583.496094 21.972656 
31.738281 -578.613281 21.972656 
31.738281 -583.496094 26.855469 
36.621094 -578.613281 21.972656 
36.621094 -583.496094 26.855469 
31.738281 -578.613281 26.855469 
36.621094 -578.613281 26.855469 
26.855469 -573.730469 21.972656 
21.972656 -573.730469 26.855469 
26.855469 -573.730469 26.855469 
21.972656 -568.847656 26.855469 
26.855469 -568.847656 26.855469 
21.972656 -583.496094 31.738281 
26.855469 -583.496094 31.738281 
21.972656 -578.613281 31.738281 
21.972656 -583.496094 36.621094 
26.855469 -578.613281 31.738281 
26.855469 -583.496094 36.621094 
21.972656 -578.613281 36.621094 
26.855469 -578.613281 36.621094 
31.738281 -573.730469 21.972656 
36.621094 -573.730469 21.972656 
31.738281 -573.730469 26.855469 
36.621094 -568.847656 21.972656 
36.621094 -573.730469 26.855469 
31.738281 -568.847656 26.855469 
36.621094 -568.847656 26.855469 
31.738281 -583.496094 31.738281 
36.621094 -583.496094 31.738281 
31.738281 -578.613281 31.738281 
31.738281 -583.496094 36.621094 
36.621094 -578.613281 31.738281 
36.621094 -583.496094 36.621094 
31.738281 -578.613281 36.621094 
36.621094 -578.613281 36.621094 
21.972656 -573.730469 31.738281 
26.855469 -573.730469 31.738281 
21.972656 -568.847656 31.738281 
21.972656 -573.730469 36.621094 
26.855469 -568.847656 31.738281 
26.855469 -573.730469 36.621094 
21.972656 -568.847656 36.621094 
26.855469 -568.847656 36.621094 
31.738281 -573.730469 31.738281 
36.621094 -573.730469 31.738281 
31.738281 -568.847656 31.738281 
31.738281 -573.730469 36.621094 
36.621094 -568.847656 31.738281 
36.621094 -573.730469 36.621094 
31.738281 -568.847656 36.621094 
36.621094 -568.847656 36.621094 
31.738281 -563.964844 26.855469 
36.621094 -563.964844 26.855469 
36.621094 -559.082031 26.855469 
21.972656 -563.964844 31.738281 
26.855469 -563.964844 31.738281 
26.855469 -559.082031 31.738281 
26.855469 -563.964844 36.621094 
26.855469 -559.082031 36.621094 
31.738281 -563.964844 31.738281 
36.621094 -563.964844 31.738281 
31.738281 -559.082031 31.738281 
31.738281 -563.964844 36.621094 
36.621094 -559.082031 31.738281 
36.621094 -563.964844 36.621094 
31.738281 -559.082031 36.621094 
36.621094 -559.082031 36.621094 
31.738281 -554.199219 31.738281 
36.621094 -554.199219 31.738281 
31.738281 -554.199219 36.621094 
36.621094 -554.199219 36.621094 
31.738281 -549.316406 36.621094 
36.621094 -549.316406 36.621094 
2.441406 -617.675781 41.503906 
2.441406 -622.558594 46.386719 
7.324219 -617.675781 41.503906 
2.441406 -617.675781 46.386719 
7.324219 -617.675781 46.386719 
12.207031 -617.675781 41.503906 
2.441406 -612.792969 41.503906 
7.324219 -612.792969 41.503906 
2.441406 -607.910156 41.503906 
2.441406 -612.792969 46.386719 
7.324219 -607.910156 41.503906 
7.324219 -612.792969 46.386719 
7.324219 -607.910156 46.386719 
2.441406 -617.675781 51.269531 
12.207031 -612.792969 41.503906 
12.207031 -607.910156 41.503906 
17.089844 -607.910156 41.503906 
12.207031 -607.910156 46.386719 
7.324219 -612.792969 51.269531 
7.324219 -607.910156 56.152344 
26.855469 -622.558594 41.503906 
26.855469 -622.558594 46.386719 
31.738281 -622.558594 41.503906 
36.621094 -622.558594 41.503906 
31.738281 -622.558594 46.386719 
36.621094 -617.675781 41.503906 
36.621094 -622.558594 46.386719 
31.738281 -617.675781 46.386719 
36.621094 -617.675781 46.386719 
21.972656 -622.558594 51.269531 
26.855469 -622.558594 51.269531 
21.972656 -622.558594 56.152344 
26.855469 -622.558594 56.152344 
26.855469 -617.675781 56.152344 
36.621094 -612.792969 46.386719 
31.738281 -622.558594 51.269531 
36.621094 -622.558594 51.269531 
31.738281 -617.675781 51.269531 
31.738281 -622.558594 56.152344 
36.621094 -617.675781 51.269531 
36.621094 -622.558594 56.152344 
31.738281 -617.675781 56.152344 
36.621094 -617.675781 56.152344 
31.738281 -612.792969 51.269531 
36.621094 -612.792969 51.269531 
31.738281 -612.792969 56.152344 
36.621094 -607.910156 51.269531 
36.621094 -612.792969 56.152344 
31.738281 -607.910156 56.152344 
36.621094 -607.910156 56.152344 
2.441406 -603.027344 41.503906 
7.324219 -603.027344 41.503906 
7.324219 -598.144531 41.503906 
7.324219 -603.027344 46.386719 
7.324219 -598.144531 46.386719 
12.207031 -603.027344 41.503906 
17.089844 -603.027344 41.503906 
12.207031 -598.144531 41.503906 
12.207031 -603.027344 46.386719 
17.089844 -598.144531 41.503906 
17.089844 -603.027344 46.386719 
12.207031 -598.144531 46.386719 
17.089844 -598.144531 46.386719 
7.324219 -593.261719 41.503906 
7.324219 -588.378906 41.503906 
7.324219 -593.261719 46.386719 
7.324219 -603.027344 51.269531 
12.207031 -593.261719 41.503906 
17.089844 -593.261719 41.503906 
12.207031 -588.378906 41.503906 
12.207031 -593.261719 46.386719 
17.089844 -588.378906 41.503906 
17.089844 -593.261719 46.386719 
12.207031 -588.378906 46.386719 
17.089844 -588.378906 46.386719 
12.207031 -603.027344 51.269531 
17.089844 -603.027344 51.269531 
12.207031 -598.144531 51.269531 
12.207031 -603.027344 56.152344 
17.089844 -598.144531 51.269531 
12.207031 -598.144531 56.152344 
17.089844 -598.144531 56.152344 
12.207031 -593.261719 51.269531 
17.089844 -593.261719 51.269531 
12.207031 -588.378906 51.269531 
12.207031 -593.261719 56.152344 
17.089844 -588.378906 51.269531 
17.089844 -593.261719 56.152344 
17.089844 -588.378906 56.152344 
17.089844 -622.558594 65.917969 
17.089844 -617.675781 65.917969 
12.207031 -622.558594 70.800781 
17.089844 -622.558594 70.800781 
17.089844 -617.675781 70.800781 
17.089844 -622.558594 75.683594 
17.089844 -617.675781 75.683594 
17.089844 -612.792969 70.800781 
17.089844 -607.910156 75.683594 
21.972656 -603.027344 41.503906 
21.972656 -598.144531 41.503906 
26.855469 -598.144531 41.503906 
21.972656 -598.144531 46.386719 
21.972656 -593.261719 41.503906 
26.855469 -593.261719 41.503906 
21.972656 -588.378906 41.503906 
21.972656 -593.261719 46.386719 
26.855469 -588.378906 41.503906 
26.855469 -593.261719 46.386719 
21.972656 -588.378906 46.386719 
26.855469 -588.378906 46.386719 
21.972656 -598.144531 51.269531 
31.738281 -593.261719 41.503906 
31.738281 -588.378906 41.503906 
31.738281 -588.378906 46.386719 
36.621094 -603.027344 51.269531 
36.621094 -603.027344 56.152344 
36.621094 -598.144531 56.152344 
21.972656 -593.261719 51.269531 
26.855469 -593.261719 51.269531 
21.972656 -588.378906 51.269531 
21.972656 -593.261719 56.152344 
26.855469 -588.378906 51.269531 
21.972656 -588.378906 56.152344 
26.855469 -588.378906 56.152344 
31.738281 -588.378906 51.269531 
21.972656 -622.558594 61.035156 
26.855469 -622.558594 61.035156 
21.972656 -617.675781 61.035156 
21.972656 -622.558594 65.917969 
26.855469 -617.675781 61.035156 
26.855469 -622.558594 65.917969 
21.972656 -617.675781 65.917969 
31.738281 -622.558594 61.035156 
36.621094 -622.558594 61.035156 
31.738281 -617.675781 61.035156 
31.738281 -622.558594 65.917969 
36.621094 -617.675781 61.035156 
36.621094 -622.558594 65.917969 
31.738281 -617.675781 65.917969 
36.621094 -617.675781 65.917969 
26.855469 -612.792969 61.035156 
21.972656 -612.792969 65.917969 
26.855469 -607.910156 61.035156 
26.855469 -612.792969 65.917969 
26.855469 -607.910156 65.917969 
21.972656 -622.558594 70.800781 
26.855469 -622.558594 70.800781 
21.972656 -617.675781 70.800781 
21.972656 -622.558594 75.683594 
26.855469 -617.675781 70.800781 
26.855469 -622.558594 75.683594 
21.972656 -617.675781 75.683594 
26.855469 -617.675781 75.683594 
31.738281 -612.792969 61.035156 
36.621094 -612.792969 61.035156 
31.738281 -607.910156 61.035156 
31.738281 -612.792969 65.917969 
36.621094 -607.910156 61.035156 
36.621094 -612.792969 65.917969 
31.738281 -607.910156 65.917969 
36.621094 -607.910156 65.917969 
31.738281 -622.558594 70.800781 
36.621094 -622.558594 70.800781 
31.738281 -617.675781 70.800781 
31.738281 -622.558594 75.683594 
36.621094 -617.675781 70.800781 
31.738281 -617.675781 75.683594 
36.621094 -617.675781 75.683594 
21.972656 -612.792969 70.800781 
26.855469 -612.792969 70.800781 
21.972656 -607.910156 70.800781 
21.972656 -612.792969 75.683594 
26.855469 -612.792969 75.683594 
21.972656 -607.910156 75.683594 
26.855469 -607.910156 75.683594 
31.738281 -612.792969 70.800781 
36.621094 -612.792969 70.800781 
31.738281 -607.910156 70.800781 
31.738281 -612.792969 75.683594 
36.621094 -607.910156 70.800781 
36.621094 -612.792969 75.683594 
31.738281 -607.910156 75.683594 
36.621094 -607.910156 75.683594 
12.207031 -603.027344 61.035156 
12.207031 -598.144531 61.035156 
17.089844 -598.144531 61.035156 
17.089844 -593.261719 61.035156 
17.089844 -588.378906 61.035156 
17.089844 -593.261719 65.917969 
26.855469 -603.027344 65.917969 
31.738281 -603.027344 61.035156 
36.621094 -603.027344 61.035156 
31.738281 -603.027344 65.917969 
36.621094 -598.144531 61.035156 
36.621094 -603.027344 65.917969 
31.738281 -598.144531 65.917969 
36.621094 -598.144531 65.917969 
21.972656 -593.261719 61.035156 
21.972656 -588.378906 61.035156 
26.855469 -588.378906 61.035156 
21.972656 -588.378906 65.917969 
26.855469 -603.027344 70.800781 
21.972656 -603.027344 75.683594 
26.855469 -598.144531 70.800781 
26.855469 -603.027344 75.683594 
26.855469 -598.144531 75.683594 
36.621094 -593.261719 65.917969 
31.738281 -603.027344 70.800781 
36.621094 -603.027344 70.800781 
31.738281 -598.144531 70.800781 
31.738281 -603.027344 75.683594 
36.621094 -598.144531 70.800781 
36.621094 -603.027344 75.683594 
31.738281 -598.144531 75.683594 
36.621094 -598.144531 75.683594 
26.855469 -593.261719 75.683594 
31.738281 -593.261719 70.800781 
36.621094 -593.261719 70.800781 
31.738281 -593.261719 75.683594 
36.621094 -588.378906 70.800781 
36.621094 -593.261719 75.683594 
31.738281 -588.378906 75.683594 
36.621094 -588.378906 75.683594 
41.503906 -583.496094 21.972656 
41.503906 -578.613281 21.972656 
41.503906 -583.496094 26.855469 
46.386719 -583.496094 26.855469 
41.503906 -578.613281 26.855469 
46.386719 -578.613281 26.855469 
41.503906 -573.730469 26.855469 
46.386719 -573.730469 26.855469 
41.503906 -568.847656 26.855469 
41.503906 -583.496094 31.738281 
46.386719 -583.496094 31.738281 
41.503906 -578.613281 31.738281 
41.503906 -583.496094 36.621094 
46.386719 -578.613281 31.738281 
