2.441406
124.511719 -344.238281 114.746094 
129.394531 -339.355469 104.980469 
129.394531 -334.472656 104.980469 
134.277344 -334.472656 104.980469 
129.394531 -349.121094 109.863281 
134.277344 -349.121094 109.863281 
129.394531 -344.238281 109.863281 
129.394531 -349.121094 114.746094 
134.277344 -349.121094 114.746094 
129.394531 -344.238281 114.746094 
134.277344 -344.238281 114.746094 
119.628906 -339.355469 109.863281 
124.511719 -339.355469 109.863281 
119.628906 -334.472656 109.863281 
119.628906 -339.355469 114.746094 
124.511719 -334.472656 109.863281 
124.511719 -339.355469 114.746094 
119.628906 -334.472656 114.746094 
124.511719 -334.472656 114.746094 
129.394531 -339.355469 109.863281 
134.277344 -339.355469 109.863281 
129.394531 -334.472656 109.863281 
129.394531 -339.355469 114.746094 
134.277344 -334.472656 109.863281 
134.277344 -339.355469 114.746094 
129.394531 -334.472656 114.746094 
134.277344 -334.472656 114.746094 
139.160156 -334.472656 109.863281 
139.160156 -339.355469 114.746094 
139.160156 -334.472656 114.746094 
119.628906 -329.589844 100.097656 
124.511719 -329.589844 100.097656 
119.628906 -329.589844 104.980469 
124.511719 -329.589844 104.980469 
129.394531 -329.589844 100.097656 
129.394531 -329.589844 104.980469 
134.277344 -329.589844 104.980469 
129.394531 -324.707031 104.980469 
134.277344 -324.707031 104.980469 
119.628906 -329.589844 109.863281 
124.511719 -329.589844 109.863281 
119.628906 -324.707031 109.863281 
119.628906 -329.589844 114.746094 
124.511719 -324.707031 109.863281 
124.511719 -329.589844 114.746094 
119.628906 -324.707031 114.746094 
124.511719 -324.707031 114.746094 
129.394531 -329.589844 109.863281 
134.277344 -329.589844 109.863281 
129.394531 -324.707031 109.863281 
129.394531 -329.589844 114.746094 
134.277344 -324.707031 109.863281 
134.277344 -329.589844 114.746094 
129.394531 -324.707031 114.746094 
134.277344 -324.707031 114.746094 
134.277344 -319.824219 114.746094 
139.160156 -329.589844 109.863281 
139.160156 -324.707031 109.863281 
139.160156 -329.589844 114.746094 
144.042969 -329.589844 114.746094 
139.160156 -324.707031 114.746094 
144.042969 -324.707031 114.746094 
139.160156 -319.824219 114.746094 
144.042969 -319.824219 114.746094 
148.925781 -319.824219 114.746094 
119.628906 -373.535156 119.628906 
119.628906 -373.535156 124.511719 
119.628906 -368.652344 119.628906 
124.511719 -368.652344 119.628906 
119.628906 -363.769531 119.628906 
119.628906 -368.652344 124.511719 
124.511719 -363.769531 119.628906 
119.628906 -363.769531 124.511719 
124.511719 -363.769531 124.511719 
129.394531 -363.769531 119.628906 
129.394531 -363.769531 124.511719 
119.628906 -358.886719 119.628906 
124.511719 -358.886719 119.628906 
119.628906 -354.003906 119.628906 
119.628906 -358.886719 124.511719 
124.511719 -354.003906 119.628906 
124.511719 -358.886719 124.511719 
119.628906 -354.003906 124.511719 
124.511719 -354.003906 124.511719 
119.628906 -368.652344 129.394531 
119.628906 -363.769531 129.394531 
124.511719 -363.769531 129.394531 
119.628906 -363.769531 134.277344 
129.394531 -358.886719 119.628906 
129.394531 -354.003906 119.628906 
129.394531 -358.886719 124.511719 
134.277344 -354.003906 119.628906 
129.394531 -354.003906 124.511719 
134.277344 -354.003906 124.511719 
119.628906 -358.886719 129.394531 
124.511719 -358.886719 129.394531 
119.628906 -354.003906 129.394531 
119.628906 -358.886719 134.277344 
124.511719 -354.003906 129.394531 
124.511719 -358.886719 134.277344 
119.628906 -354.003906 134.277344 
124.511719 -354.003906 134.277344 
129.394531 -358.886719 129.394531 
129.394531 -354.003906 129.394531 
134.277344 -354.003906 129.394531 
129.394531 -354.003906 134.277344 
153.808594 -388.183594 144.042969 
153.808594 -383.300781 144.042969 
144.042969 -388.183594 153.808594 
144.042969 -383.300781 153.808594 
153.808594 -378.417969 144.042969 
153.808594 -373.535156 144.042969 
148.925781 -388.183594 148.925781 
153.808594 -388.183594 148.925781 
148.925781 -383.300781 148.925781 
148.925781 -388.183594 153.808594 
153.808594 -383.300781 148.925781 
153.808594 -388.183594 153.808594 
148.925781 -383.300781 153.808594 
153.808594 -383.300781 153.808594 
144.042969 -378.417969 153.808594 
148.925781 -378.417969 148.925781 
153.808594 -378.417969 148.925781 
148.925781 -373.535156 148.925781 
148.925781 -378.417969 153.808594 
153.808594 -373.535156 148.925781 
153.808594 -378.417969 153.808594 
148.925781 -373.535156 153.808594 
153.808594 -373.535156 153.808594 
119.628906 -354.003906 139.160156 
124.511719 -354.003906 139.160156 
153.808594 -368.652344 144.042969 
148.925781 -368.652344 148.925781 
153.808594 -368.652344 148.925781 
148.925781 -368.652344 153.808594 
153.808594 -368.652344 153.808594 
90.332031 -349.121094 119.628906 
95.214844 -349.121094 119.628906 
90.332031 -349.121094 124.511719 
95.214844 -344.238281 119.628906 
95.214844 -349.121094 124.511719 
95.214844 -344.238281 124.511719 
90.332031 -349.121094 129.394531 
95.214844 -349.121094 129.394531 
90.332031 -344.238281 129.394531 
90.332031 -349.121094 134.277344 
95.214844 -344.238281 129.394531 
95.214844 -349.121094 134.277344 
90.332031 -344.238281 134.277344 
95.214844 -344.238281 134.277344 
95.214844 -339.355469 129.394531 
90.332031 -339.355469 134.277344 
95.214844 -334.472656 129.394531 
95.214844 -339.355469 134.277344 
90.332031 -334.472656 134.277344 
95.214844 -334.472656 134.277344 
100.097656 -349.121094 119.628906 
104.980469 -349.121094 119.628906 
100.097656 -344.238281 119.628906 
100.097656 -349.121094 124.511719 
104.980469 -344.238281 119.628906 
104.980469 -349.121094 124.511719 
100.097656 -344.238281 124.511719 
104.980469 -344.238281 124.511719 
109.863281 -349.121094 119.628906 
114.746094 -349.121094 119.628906 
109.863281 -344.238281 119.628906 
109.863281 -349.121094 124.511719 
114.746094 -344.238281 119.628906 
114.746094 -349.121094 124.511719 
109.863281 -344.238281 124.511719 
114.746094 -344.238281 124.511719 
104.980469 -339.355469 119.628906 
100.097656 -339.355469 124.511719 
104.980469 -334.472656 119.628906 
104.980469 -339.355469 124.511719 
100.097656 -334.472656 124.511719 
104.980469 -334.472656 124.511719 
100.097656 -349.121094 129.394531 
104.980469 -349.121094 129.394531 
100.097656 -344.238281 129.394531 
100.097656 -349.121094 134.277344 
104.980469 -344.238281 129.394531 
104.980469 -349.121094 134.277344 
100.097656 -344.238281 134.277344 
104.980469 -344.238281 134.277344 
109.863281 -339.355469 119.628906 
114.746094 -339.355469 119.628906 
109.863281 -334.472656 119.628906 
109.863281 -339.355469 124.511719 
114.746094 -334.472656 119.628906 
114.746094 -339.355469 124.511719 
109.863281 -334.472656 124.511719 
114.746094 -334.472656 124.511719 
109.863281 -349.121094 129.394531 
114.746094 -349.121094 129.394531 
109.863281 -344.238281 129.394531 
109.863281 -349.121094 134.277344 
114.746094 -344.238281 129.394531 
114.746094 -349.121094 134.277344 
109.863281 -344.238281 134.277344 
114.746094 -344.238281 134.277344 
100.097656 -339.355469 129.394531 
104.980469 -339.355469 129.394531 
100.097656 -334.472656 129.394531 
100.097656 -339.355469 134.277344 
104.980469 -334.472656 129.394531 
104.980469 -339.355469 134.277344 
100.097656 -334.472656 134.277344 
104.980469 -334.472656 134.277344 
109.863281 -339.355469 129.394531 
114.746094 -339.355469 129.394531 
109.863281 -334.472656 129.394531 
109.863281 -339.355469 134.277344 
114.746094 -334.472656 129.394531 
114.746094 -339.355469 134.277344 
109.863281 -334.472656 134.277344 
114.746094 -334.472656 134.277344 
95.214844 -329.589844 134.277344 
95.214844 -324.707031 134.277344 
95.214844 -349.121094 139.160156 
95.214844 -339.355469 139.160156 
95.214844 -334.472656 139.160156 
104.980469 -329.589844 119.628906 
104.980469 -329.589844 124.511719 
104.980469 -324.707031 124.511719 
109.863281 -329.589844 119.628906 
114.746094 -329.589844 119.628906 
109.863281 -324.707031 119.628906 
109.863281 -329.589844 124.511719 
114.746094 -324.707031 119.628906 
114.746094 -329.589844 124.511719 
109.863281 -324.707031 124.511719 
114.746094 -324.707031 124.511719 
100.097656 -329.589844 129.394531 
104.980469 -329.589844 129.394531 
100.097656 -324.707031 129.394531 
100.097656 -329.589844 134.277344 
104.980469 -324.707031 129.394531 
104.980469 -329.589844 134.277344 
100.097656 -324.707031 134.277344 
104.980469 -324.707031 134.277344 
109.863281 -329.589844 129.394531 
114.746094 -329.589844 129.394531 
109.863281 -324.707031 129.394531 
109.863281 -329.589844 134.277344 
114.746094 -324.707031 129.394531 
114.746094 -329.589844 134.277344 
109.863281 -324.707031 134.277344 
114.746094 -324.707031 134.277344 
100.097656 -319.824219 134.277344 
104.980469 -319.824219 134.277344 
104.980469 -314.941406 134.277344 
114.746094 -319.824219 129.394531 
109.863281 -319.824219 134.277344 
114.746094 -319.824219 134.277344 
109.863281 -314.941406 134.277344 
114.746094 -314.941406 134.277344 
100.097656 -349.121094 139.160156 
104.980469 -349.121094 139.160156 
100.097656 -344.238281 139.160156 
104.980469 -344.238281 139.160156 
109.863281 -349.121094 139.160156 
114.746094 -349.121094 139.160156 
109.863281 -344.238281 139.160156 
114.746094 -344.238281 139.160156 
109.863281 -344.238281 144.042969 
114.746094 -344.238281 144.042969 
100.097656 -339.355469 139.160156 
104.980469 -339.355469 139.160156 
100.097656 -334.472656 139.160156 
100.097656 -339.355469 144.042969 
104.980469 -334.472656 139.160156 
104.980469 -339.355469 144.042969 
100.097656 -334.472656 144.042969 
104.980469 -334.472656 144.042969 
109.863281 -339.355469 139.160156 
114.746094 -339.355469 139.160156 
109.863281 -334.472656 139.160156 
109.863281 -339.355469 144.042969 
114.746094 -334.472656 139.160156 
114.746094 -339.355469 144.042969 
109.863281 -334.472656 144.042969 
114.746094 -334.472656 144.042969 
104.980469 -334.472656 148.925781 
114.746094 -339.355469 148.925781 
109.863281 -334.472656 148.925781 
114.746094 -334.472656 148.925781 
95.214844 -329.589844 139.160156 
95.214844 -324.707031 139.160156 
100.097656 -329.589844 139.160156 
104.980469 -329.589844 139.160156 
100.097656 -324.707031 139.160156 
100.097656 -329.589844 144.042969 
104.980469 -324.707031 139.160156 
104.980469 -329.589844 144.042969 
100.097656 -324.707031 144.042969 
104.980469 -324.707031 144.042969 
109.863281 -329.589844 139.160156 
114.746094 -329.589844 139.160156 
109.863281 -324.707031 139.160156 
109.863281 -329.589844 144.042969 
114.746094 -324.707031 139.160156 
114.746094 -329.589844 144.042969 
109.863281 -324.707031 144.042969 
114.746094 -324.707031 144.042969 
100.097656 -319.824219 139.160156 
104.980469 -319.824219 139.160156 
100.097656 -314.941406 139.160156 
100.097656 -319.824219 144.042969 
104.980469 -314.941406 139.160156 
104.980469 -319.824219 144.042969 
100.097656 -314.941406 144.042969 
104.980469 -314.941406 144.042969 
104.980469 -329.589844 148.925781 
104.980469 -324.707031 148.925781 
109.863281 -319.824219 139.160156 
114.746094 -319.824219 139.160156 
109.863281 -314.941406 139.160156 
109.863281 -319.824219 144.042969 
114.746094 -314.941406 139.160156 
114.746094 -319.824219 144.042969 
109.863281 -314.941406 144.042969 
114.746094 -314.941406 144.042969 
109.863281 -329.589844 148.925781 
114.746094 -329.589844 148.925781 
109.863281 -324.707031 148.925781 
109.863281 -329.589844 153.808594 
114.746094 -324.707031 148.925781 
114.746094 -329.589844 153.808594 
109.863281 -324.707031 153.808594 
114.746094 -324.707031 153.808594 
100.097656 -319.824219 148.925781 
104.980469 -319.824219 148.925781 
100.097656 -314.941406 148.925781 
104.980469 -314.941406 148.925781 
104.980469 -314.941406 153.808594 
109.863281 -319.824219 148.925781 
114.746094 -319.824219 148.925781 
109.863281 -314.941406 148.925781 
109.863281 -319.824219 153.808594 
114.746094 -314.941406 148.925781 
114.746094 -319.824219 153.808594 
109.863281 -314.941406 153.808594 
114.746094 -314.941406 153.808594 
119.628906 -349.121094 119.628906 
124.511719 -349.121094 119.628906 
119.628906 -344.238281 119.628906 
119.628906 -349.121094 124.511719 
124.511719 -344.238281 119.628906 
124.511719 -349.121094 124.511719 
119.628906 -344.238281 124.511719 
124.511719 -344.238281 124.511719 
129.394531 -349.121094 119.628906 
134.277344 -349.121094 119.628906 
129.394531 -344.238281 119.628906 
129.394531 -349.121094 124.511719 
134.277344 -344.238281 119.628906 
134.277344 -349.121094 124.511719 
129.394531 -344.238281 124.511719 
134.277344 -344.238281 124.511719 
119.628906 -339.355469 119.628906 
124.511719 -339.355469 119.628906 
119.628906 -334.472656 119.628906 
119.628906 -339.355469 124.511719 
124.511719 -334.472656 119.628906 
124.511719 -339.355469 124.511719 
119.628906 -334.472656 124.511719 
124.511719 -334.472656 124.511719 
119.628906 -349.121094 129.394531 
124.511719 -349.121094 129.394531 
119.628906 -344.238281 129.394531 
119.628906 -349.121094 134.277344 
124.511719 -344.238281 129.394531 
124.511719 -349.121094 134.277344 
119.628906 -344.238281 134.277344 
124.511719 -344.238281 134.277344 
129.394531 -339.355469 119.628906 
134.277344 -339.355469 119.628906 
129.394531 -334.472656 119.628906 
129.394531 -339.355469 124.511719 
134.277344 -334.472656 119.628906 
134.277344 -339.355469 124.511719 
129.394531 -334.472656 124.511719 
134.277344 -334.472656 124.511719 
129.394531 -349.121094 129.394531 
134.277344 -349.121094 129.394531 
129.394531 -344.238281 129.394531 
129.394531 -349.121094 134.277344 
134.277344 -344.238281 129.394531 
134.277344 -349.121094 134.277344 
129.394531 -344.238281 134.277344 
134.277344 -344.238281 134.277344 
119.628906 -339.355469 129.394531 
124.511719 -339.355469 129.394531 
119.628906 -334.472656 129.394531 
119.628906 -339.355469 134.277344 
124.511719 -334.472656 129.394531 
124.511719 -339.355469 134.277344 
119.628906 -334.472656 134.277344 
124.511719 -334.472656 134.277344 
129.394531 -339.355469 129.394531 
134.277344 -339.355469 129.394531 
129.394531 -334.472656 129.394531 
129.394531 -339.355469 134.277344 
134.277344 -334.472656 129.394531 
134.277344 -339.355469 134.277344 
129.394531 -334.472656 134.277344 
134.277344 -334.472656 134.277344 
139.160156 -344.238281 124.511719 
139.160156 -339.355469 119.628906 
139.160156 -334.472656 119.628906 
139.160156 -339.355469 124.511719 
144.042969 -334.472656 119.628906 
139.160156 -334.472656 124.511719 
144.042969 -334.472656 124.511719 
139.160156 -344.238281 129.394531 
139.160156 -344.238281 134.277344 
139.160156 -339.355469 129.394531 
139.160156 -334.472656 129.394531 
139.160156 -339.355469 134.277344 
144.042969 -334.472656 129.394531 
139.160156 -334.472656 134.277344 
144.042969 -334.472656 134.277344 
119.628906 -329.589844 119.628906 
124.511719 -329.589844 119.628906 
119.628906 -324.707031 119.628906 
119.628906 -329.589844 124.511719 
124.511719 -324.707031 119.628906 
124.511719 -329.589844 124.511719 
119.628906 -324.707031 124.511719 
124.511719 -324.707031 124.511719 
129.394531 -329.589844 119.628906 
134.277344 -329.589844 119.628906 
129.394531 -324.707031 119.628906 
129.394531 -329.589844 124.511719 
134.277344 -324.707031 119.628906 
134.277344 -329.589844 124.511719 
129.394531 -324.707031 124.511719 
134.277344 -324.707031 124.511719 
124.511719 -319.824219 124.511719 
119.628906 -329.589844 129.394531 
124.511719 -329.589844 129.394531 
119.628906 -324.707031 129.394531 
119.628906 -329.589844 134.277344 
124.511719 -324.707031 129.394531 
124.511719 -329.589844 134.277344 
119.628906 -324.707031 134.277344 
124.511719 -324.707031 134.277344 
129.394531 -319.824219 119.628906 
134.277344 -319.824219 119.628906 
129.394531 -319.824219 124.511719 
134.277344 -319.824219 124.511719 
134.277344 -314.941406 124.511719 
129.394531 -329.589844 129.394531 
134.277344 -329.589844 129.394531 
129.394531 -324.707031 129.394531 
129.394531 -329.589844 134.277344 
134.277344 -324.707031 129.394531 
134.277344 -329.589844 134.277344 
129.394531 -324.707031 134.277344 
134.277344 -324.707031 134.277344 
119.628906 -319.824219 129.394531 
124.511719 -319.824219 129.394531 
119.628906 -314.941406 129.394531 
119.628906 -319.824219 134.277344 
124.511719 -314.941406 129.394531 
124.511719 -319.824219 134.277344 
119.628906 -314.941406 134.277344 
124.511719 -314.941406 134.277344 
129.394531 -319.824219 129.394531 
134.277344 -319.824219 129.394531 
129.394531 -319.824219 134.277344 
134.277344 -319.824219 134.277344 
129.394531 -314.941406 134.277344 
134.277344 -314.941406 134.277344 
119.628906 -349.121094 139.160156 
124.511719 -349.121094 139.160156 
119.628906 -344.238281 139.160156 
124.511719 -344.238281 139.160156 
124.511719 -349.121094 144.042969 
119.628906 -344.238281 144.042969 
124.511719 -344.238281 144.042969 
129.394531 -349.121094 139.160156 
134.277344 -349.121094 139.160156 
129.394531 -344.238281 139.160156 
134.277344 -344.238281 139.160156 
129.394531 -344.238281 144.042969 
134.277344 -344.238281 144.042969 
119.628906 -339.355469 139.160156 
124.511719 -339.355469 139.160156 
119.628906 -334.472656 139.160156 
119.628906 -339.355469 144.042969 
124.511719 -334.472656 139.160156 
124.511719 -339.355469 144.042969 
119.628906 -334.472656 144.042969 
124.511719 -334.472656 144.042969 
129.394531 -339.355469 139.160156 
134.277344 -339.355469 139.160156 
129.394531 -334.472656 139.160156 
129.394531 -339.355469 144.042969 
134.277344 -334.472656 139.160156 
134.277344 -339.355469 144.042969 
129.394531 -334.472656 144.042969 
134.277344 -334.472656 144.042969 
119.628906 -339.355469 148.925781 
124.511719 -339.355469 148.925781 
119.628906 -334.472656 148.925781 
124.511719 -334.472656 148.925781 
129.394531 -339.355469 148.925781 
134.277344 -339.355469 148.925781 
129.394531 -334.472656 148.925781 
134.277344 -334.472656 148.925781 
129.394531 -334.472656 153.808594 
134.277344 -334.472656 153.808594 
139.160156 -329.589844 119.628906 
144.042969 -329.589844 119.628906 
139.160156 -324.707031 119.628906 
139.160156 -329.589844 124.511719 
144.042969 -324.707031 119.628906 
144.042969 -329.589844 124.511719 
139.160156 -324.707031 124.511719 
144.042969 -324.707031 124.511719 
148.925781 -324.707031 119.628906 
148.925781 -329.589844 124.511719 
148.925781 -324.707031 124.511719 
153.808594 -324.707031 124.511719 
139.160156 -319.824219 119.628906 
144.042969 -319.824219 119.628906 
139.160156 -319.824219 124.511719 
144.042969 -314.941406 119.628906 
144.042969 -319.824219 124.511719 
139.160156 -314.941406 124.511719 
139.160156 -329.589844 129.394531 
144.042969 -329.589844 129.394531 
139.160156 -324.707031 129.394531 
139.160156 -329.589844 134.277344 
144.042969 -324.707031 129.394531 
144.042969 -329.589844 134.277344 
139.160156 -324.707031 134.277344 
144.042969 -324.707031 134.277344 
148.925781 -319.824219 119.628906 
153.808594 -319.824219 119.628906 
148.925781 -314.941406 119.628906 
148.925781 -319.824219 124.511719 
153.808594 -314.941406 119.628906 
153.808594 -319.824219 124.511719 
148.925781 -314.941406 124.511719 
153.808594 -314.941406 124.511719 
148.925781 -329.589844 129.394531 
148.925781 -324.707031 129.394531 
148.925781 -329.589844 134.277344 
153.808594 -324.707031 129.394531 
153.808594 -329.589844 134.277344 
148.925781 -324.707031 134.277344 
153.808594 -324.707031 134.277344 
139.160156 -319.824219 129.394531 
144.042969 -319.824219 129.394531 
139.160156 -319.824219 134.277344 
144.042969 -319.824219 134.277344 
139.160156 -314.941406 134.277344 
144.042969 -314.941406 134.277344 
148.925781 -319.824219 129.394531 
153.808594 -319.824219 129.394531 
148.925781 -314.941406 129.394531 
148.925781 -319.824219 134.277344 
153.808594 -314.941406 129.394531 
153.808594 -319.824219 134.277344 
148.925781 -314.941406 134.277344 
139.160156 -344.238281 139.160156 
139.160156 -339.355469 139.160156 
139.160156 -334.472656 139.160156 
139.160156 -339.355469 144.042969 
144.042969 -334.472656 139.160156 
139.160156 -334.472656 144.042969 
144.042969 -334.472656 144.042969 
139.160156 -334.472656 148.925781 
144.042969 -334.472656 148.925781 
119.628906 -329.589844 139.160156 
124.511719 -329.589844 139.160156 
119.628906 -324.707031 139.160156 
119.628906 -329.589844 144.042969 
124.511719 -324.707031 139.160156 
124.511719 -329.589844 144.042969 
119.628906 -324.707031 144.042969 
124.511719 -324.707031 144.042969 
129.394531 -329.589844 139.160156 
134.277344 -329.589844 139.160156 
129.394531 -324.707031 139.160156 
129.394531 -329.589844 144.042969 
134.277344 -324.707031 139.160156 
134.277344 -329.589844 144.042969 
129.394531 -324.707031 144.042969 
134.277344 -324.707031 144.042969 
119.628906 -319.824219 139.160156 
124.511719 -319.824219 139.160156 
119.628906 -314.941406 139.160156 
119.628906 -319.824219 144.042969 
124.511719 -314.941406 139.160156 
124.511719 -319.824219 144.042969 
119.628906 -314.941406 144.042969 
124.511719 -314.941406 144.042969 
119.628906 -329.589844 148.925781 
124.511719 -329.589844 148.925781 
119.628906 -324.707031 148.925781 
119.628906 -329.589844 153.808594 
124.511719 -324.707031 148.925781 
124.511719 -329.589844 153.808594 
119.628906 -324.707031 153.808594 
124.511719 -324.707031 153.808594 
129.394531 -319.824219 139.160156 
134.277344 -319.824219 139.160156 
129.394531 -314.941406 139.160156 
129.394531 -319.824219 144.042969 
134.277344 -314.941406 139.160156 
134.277344 -319.824219 144.042969 
129.394531 -314.941406 144.042969 
134.277344 -314.941406 144.042969 
129.394531 -329.589844 148.925781 
134.277344 -329.589844 148.925781 
129.394531 -324.707031 148.925781 
129.394531 -329.589844 153.808594 
134.277344 -324.707031 148.925781 
134.277344 -329.589844 153.808594 
129.394531 -324.707031 153.808594 
134.277344 -324.707031 153.808594 
119.628906 -319.824219 148.925781 
124.511719 -319.824219 148.925781 
119.628906 -314.941406 148.925781 
119.628906 -319.824219 153.808594 
124.511719 -314.941406 148.925781 
124.511719 -319.824219 153.808594 
119.628906 -314.941406 153.808594 
124.511719 -314.941406 153.808594 
129.394531 -319.824219 148.925781 
134.277344 -319.824219 148.925781 
129.394531 -314.941406 148.925781 
129.394531 -319.824219 153.808594 
134.277344 -314.941406 148.925781 
134.277344 -319.824219 153.808594 
129.394531 -314.941406 153.808594 
134.277344 -314.941406 153.808594 
139.160156 -329.589844 139.160156 
144.042969 -329.589844 139.160156 
139.160156 -324.707031 139.160156 
139.160156 -329.589844 144.042969 
144.042969 -324.707031 139.160156 
144.042969 -329.589844 144.042969 
139.160156 -324.707031 144.042969 
144.042969 -324.707031 144.042969 
148.925781 -329.589844 139.160156 
153.808594 -329.589844 139.160156 
148.925781 -324.707031 139.160156 
148.925781 -329.589844 144.042969 
153.808594 -324.707031 139.160156 
153.808594 -329.589844 144.042969 
148.925781 -324.707031 144.042969 
153.808594 -324.707031 144.042969 
139.160156 -319.824219 139.160156 
144.042969 -319.824219 139.160156 
139.160156 -314.941406 139.160156 
139.160156 -319.824219 144.042969 
144.042969 -314.941406 139.160156 
144.042969 -319.824219 144.042969 
139.160156 -314.941406 144.042969 
144.042969 -314.941406 144.042969 
139.160156 -329.589844 148.925781 
144.042969 -329.589844 148.925781 
139.160156 -324.707031 148.925781 
139.160156 -329.589844 153.808594 
144.042969 -324.707031 148.925781 
144.042969 -329.589844 153.808594 
139.160156 -324.707031 153.808594 
144.042969 -324.707031 153.808594 
148.925781 -319.824219 139.160156 
153.808594 -319.824219 139.160156 
148.925781 -314.941406 139.160156 
148.925781 -319.824219 144.042969 
153.808594 -314.941406 139.160156 
153.808594 -319.824219 144.042969 
148.925781 -314.941406 144.042969 
153.808594 -314.941406 144.042969 
148.925781 -329.589844 148.925781 
148.925781 -324.707031 148.925781 
148.925781 -329.589844 153.808594 
153.808594 -324.707031 148.925781 
148.925781 -324.707031 153.808594 
153.808594 -324.707031 153.808594 
139.160156 -319.824219 148.925781 
144.042969 -319.824219 148.925781 
139.160156 -314.941406 148.925781 
139.160156 -319.824219 153.808594 
144.042969 -314.941406 148.925781 
144.042969 -319.824219 153.808594 
139.160156 -314.941406 153.808594 
144.042969 -314.941406 153.808594 
148.925781 -319.824219 148.925781 
153.808594 -319.824219 148.925781 
148.925781 -314.941406 148.925781 
148.925781 -319.824219 153.808594 
153.808594 -314.941406 148.925781 
153.808594 -319.824219 153.808594 
148.925781 -314.941406 153.808594 
153.808594 -314.941406 153.808594 
129.394531 -583.496094 231.933594 
134.277344 -578.613281 231.933594 
134.277344 -568.847656 227.050781 
134.277344 -568.847656 231.933594 
139.160156 -573.730469 231.933594 
139.160156 -568.847656 231.933594 
144.042969 -568.847656 231.933594 
129.394531 -563.964844 222.167969 
129.394531 -559.082031 222.167969 
134.277344 -559.082031 222.167969 
124.511719 -549.316406 217.285156 
124.511719 -549.316406 222.167969 
129.394531 -554.199219 217.285156 
129.394531 -549.316406 217.285156 
129.394531 -554.199219 222.167969 
134.277344 -549.316406 217.285156 
134.277344 -554.199219 222.167969 
129.394531 -549.316406 222.167969 
134.277344 -549.316406 222.167969 
129.394531 -563.964844 227.050781 
134.277344 -563.964844 227.050781 
129.394531 -559.082031 227.050781 
134.277344 -559.082031 227.050781 
134.277344 -563.964844 231.933594 
134.277344 -559.082031 231.933594 
129.394531 -554.199219 227.050781 
134.277344 -554.199219 227.050781 
129.394531 -549.316406 227.050781 
129.394531 -554.199219 231.933594 
134.277344 -549.316406 227.050781 
134.277344 -554.199219 231.933594 
129.394531 -549.316406 231.933594 
134.277344 -549.316406 231.933594 
139.160156 -554.199219 222.167969 
139.160156 -549.316406 222.167969 
144.042969 -549.316406 222.167969 
139.160156 -563.964844 227.050781 
139.160156 -559.082031 227.050781 
139.160156 -563.964844 231.933594 
144.042969 -559.082031 227.050781 
144.042969 -563.964844 231.933594 
139.160156 -559.082031 231.933594 
144.042969 -559.082031 231.933594 
148.925781 -559.082031 231.933594 
139.160156 -554.199219 227.050781 
144.042969 -554.199219 227.050781 
139.160156 -549.316406 227.050781 
139.160156 -554.199219 231.933594 
144.042969 -549.316406 227.050781 
144.042969 -554.199219 231.933594 
139.160156 -549.316406 231.933594 
144.042969 -549.316406 231.933594 
148.925781 -554.199219 227.050781 
148.925781 -549.316406 227.050781 
148.925781 -554.199219 231.933594 
153.808594 -554.199219 231.933594 
148.925781 -549.316406 231.933594 
153.808594 -549.316406 231.933594 
139.160156 -534.667969 158.691406 
144.042969 -534.667969 158.691406 
139.160156 -529.785156 158.691406 
144.042969 -534.667969 163.574219 
148.925781 -534.667969 158.691406 
153.808594 -534.667969 158.691406 
148.925781 -529.785156 158.691406 
148.925781 -534.667969 163.574219 
153.808594 -529.785156 158.691406 
153.808594 -529.785156 163.574219 
144.042969 -524.902344 158.691406 
153.808594 -524.902344 158.691406 
153.808594 -524.902344 163.574219 
104.980469 -480.957031 173.339844 
109.863281 -471.191406 163.574219 
109.863281 -480.957031 173.339844 
104.980469 -476.074219 168.457031 
104.980469 -476.074219 173.339844 
109.863281 -476.074219 168.457031 
109.863281 -471.191406 168.457031 
109.863281 -476.074219 173.339844 
114.746094 -471.191406 168.457031 
114.746094 -476.074219 173.339844 
114.746094 -471.191406 173.339844 
104.980469 -490.722656 192.871094 
109.863281 -490.722656 187.988281 
114.746094 -490.722656 187.988281 
109.863281 -490.722656 192.871094 
114.746094 -490.722656 192.871094 
104.980469 -480.957031 178.222656 
104.980469 -485.839844 183.105469 
109.863281 -480.957031 178.222656 
109.863281 -485.839844 183.105469 
114.746094 -480.957031 178.222656 
114.746094 -485.839844 183.105469 
109.863281 -480.957031 183.105469 
114.746094 -480.957031 183.105469 
104.980469 -485.839844 187.988281 
109.863281 -476.074219 178.222656 
114.746094 -476.074219 178.222656 
114.746094 -476.074219 183.105469 
109.863281 -485.839844 187.988281 
114.746094 -485.839844 187.988281 
109.863281 -485.839844 192.871094 
114.746094 -480.957031 187.988281 
114.746094 -485.839844 192.871094 
104.980469 -510.253906 207.519531 
109.863281 -515.136719 207.519531 
114.746094 -515.136719 207.519531 
109.863281 -510.253906 207.519531 
109.863281 -515.136719 212.402344 
114.746094 -510.253906 207.519531 
114.746094 -515.136719 212.402344 
109.863281 -510.253906 212.402344 
114.746094 -510.253906 212.402344 
114.746094 -529.785156 227.050781 
114.746094 -529.785156 231.933594 
114.746094 -524.902344 217.285156 
109.863281 -520.019531 217.285156 
114.746094 -520.019531 217.285156 
114.746094 -524.902344 222.167969 
109.863281 -520.019531 222.167969 
114.746094 -520.019531 222.167969 
109.863281 -515.136719 217.285156 
114.746094 -515.136719 217.285156 
109.863281 -510.253906 217.285156 
109.863281 -515.136719 222.167969 
114.746094 -510.253906 217.285156 
114.746094 -515.136719 222.167969 
114.746094 -510.253906 222.167969 
109.863281 -524.902344 227.050781 
114.746094 -524.902344 227.050781 
109.863281 -520.019531 227.050781 
114.746094 -520.019531 227.050781 
114.746094 -524.902344 231.933594 
114.746094 -520.019531 231.933594 
114.746094 -515.136719 227.050781 
119.628906 -471.191406 168.457031 
119.628906 -476.074219 173.339844 
124.511719 -476.074219 173.339844 
119.628906 -471.191406 173.339844 
124.511719 -471.191406 173.339844 
129.394531 -471.191406 173.339844 
119.628906 -490.722656 187.988281 
119.628906 -495.605469 192.871094 
124.511719 -490.722656 187.988281 
124.511719 -495.605469 192.871094 
119.628906 -490.722656 192.871094 
124.511719 -490.722656 192.871094 
129.394531 -490.722656 187.988281 
129.394531 -495.605469 192.871094 
134.277344 -495.605469 192.871094 
129.394531 -490.722656 192.871094 
134.277344 -490.722656 192.871094 
139.160156 -495.605469 192.871094 
139.160156 -490.722656 192.871094 
119.628906 -480.957031 178.222656 
119.628906 -485.839844 183.105469 
124.511719 -480.957031 178.222656 
119.628906 -480.957031 183.105469 
124.511719 -480.957031 183.105469 
129.394531 -480.957031 183.105469 
134.277344 -480.957031 183.105469 
119.628906 -476.074219 178.222656 
124.511719 -476.074219 178.222656 
119.628906 -471.191406 178.222656 
119.628906 -476.074219 183.105469 
124.511719 -471.191406 178.222656 
124.511719 -476.074219 183.105469 
119.628906 -485.839844 187.988281 
124.511719 -485.839844 187.988281 
119.628906 -480.957031 187.988281 
119.628906 -485.839844 192.871094 
124.511719 -480.957031 187.988281 
124.511719 -485.839844 192.871094 
119.628906 -480.957031 192.871094 
124.511719 -480.957031 192.871094 
129.394531 -476.074219 178.222656 
134.277344 -476.074219 178.222656 
129.394531 -471.191406 178.222656 
129.394531 -476.074219 183.105469 
134.277344 -471.191406 178.222656 
134.277344 -476.074219 183.105469 
129.394531 -471.191406 183.105469 
134.277344 -471.191406 183.105469 
129.394531 -485.839844 187.988281 
134.277344 -485.839844 187.988281 
129.394531 -480.957031 187.988281 
129.394531 -485.839844 192.871094 
134.277344 -480.957031 187.988281 
134.277344 -485.839844 192.871094 
129.394531 -480.957031 192.871094 
134.277344 -480.957031 192.871094 
124.511719 -476.074219 187.988281 
129.394531 -476.074219 187.988281 
134.277344 -476.074219 187.988281 
129.394531 -476.074219 192.871094 
134.277344 -471.191406 187.988281 
134.277344 -476.074219 192.871094 
139.160156 -480.957031 183.105469 
139.160156 -476.074219 183.105469 
139.160156 -471.191406 183.105469 
144.042969 -471.191406 183.105469 
139.160156 -480.957031 187.988281 
139.160156 -485.839844 192.871094 
144.042969 -480.957031 187.988281 
144.042969 -485.839844 192.871094 
139.160156 -480.957031 192.871094 
144.042969 -480.957031 192.871094 
148.925781 -485.839844 192.871094 
148.925781 -480.957031 192.871094 
153.808594 -480.957031 192.871094 
139.160156 -476.074219 187.988281 
144.042969 -476.074219 187.988281 
139.160156 -471.191406 187.988281 
139.160156 -476.074219 192.871094 
144.042969 -471.191406 187.988281 
144.042969 -476.074219 192.871094 
139.160156 -471.191406 192.871094 
144.042969 -471.191406 192.871094 
148.925781 -476.074219 187.988281 
148.925781 -471.191406 187.988281 
148.925781 -476.074219 192.871094 
153.808594 -471.191406 187.988281 
153.808594 -476.074219 192.871094 
148.925781 -471.191406 192.871094 
153.808594 -471.191406 192.871094 
124.511719 -539.550781 212.402344 
129.394531 -539.550781 212.402344 
134.277344 -539.550781 212.402344 
124.511719 -534.667969 212.402344 
124.511719 -529.785156 212.402344 
129.394531 -534.667969 212.402344 
134.277344 -529.785156 207.519531 
134.277344 -534.667969 212.402344 
129.394531 -529.785156 212.402344 
134.277344 -529.785156 212.402344 
139.160156 -534.667969 212.402344 
139.160156 -529.785156 212.402344 
144.042969 -529.785156 212.402344 
134.277344 -520.019531 202.636719 
124.511719 -510.253906 202.636719 
124.511719 -524.902344 207.519531 
119.628906 -524.902344 212.402344 
124.511719 -520.019531 207.519531 
124.511719 -524.902344 212.402344 
119.628906 -520.019531 212.402344 
124.511719 -520.019531 212.402344 
129.394531 -515.136719 202.636719 
134.277344 -515.136719 202.636719 
129.394531 -510.253906 202.636719 
134.277344 -510.253906 202.636719 
129.394531 -524.902344 207.519531 
134.277344 -524.902344 207.519531 
129.394531 -520.019531 207.519531 
129.394531 -524.902344 212.402344 
134.277344 -520.019531 207.519531 
134.277344 -524.902344 212.402344 
129.394531 -520.019531 212.402344 
134.277344 -520.019531 212.402344 
119.628906 -515.136719 207.519531 
124.511719 -515.136719 207.519531 
119.628906 -510.253906 207.519531 
119.628906 -515.136719 212.402344 
124.511719 -510.253906 207.519531 
124.511719 -515.136719 212.402344 
119.628906 -510.253906 212.402344 
124.511719 -510.253906 212.402344 
129.394531 -515.136719 207.519531 
134.277344 -515.136719 207.519531 
129.394531 -510.253906 207.519531 
129.394531 -515.136719 212.402344 
134.277344 -510.253906 207.519531 
134.277344 -515.136719 212.402344 
129.394531 -510.253906 212.402344 
134.277344 -510.253906 212.402344 
124.511719 -544.433594 217.285156 
124.511719 -539.550781 217.285156 
124.511719 -544.433594 222.167969 
124.511719 -539.550781 222.167969 
129.394531 -544.433594 217.285156 
134.277344 -544.433594 217.285156 
129.394531 -539.550781 217.285156 
129.394531 -544.433594 222.167969 
134.277344 -539.550781 217.285156 
134.277344 -544.433594 222.167969 
129.394531 -539.550781 222.167969 
134.277344 -539.550781 222.167969 
124.511719 -534.667969 217.285156 
119.628906 -529.785156 217.285156 
124.511719 -529.785156 217.285156 
124.511719 -534.667969 222.167969 
119.628906 -529.785156 222.167969 
124.511719 -529.785156 222.167969 
124.511719 -539.550781 227.050781 
129.394531 -534.667969 217.285156 
134.277344 -534.667969 217.285156 
129.394531 -529.785156 217.285156 
129.394531 -534.667969 222.167969 
134.277344 -529.785156 217.285156 
134.277344 -534.667969 222.167969 
129.394531 -529.785156 222.167969 
134.277344 -529.785156 222.167969 
129.394531 -544.433594 227.050781 
134.277344 -544.433594 227.050781 
129.394531 -539.550781 227.050781 
129.394531 -544.433594 231.933594 
134.277344 -539.550781 227.050781 
134.277344 -544.433594 231.933594 
129.394531 -539.550781 231.933594 
134.277344 -539.550781 231.933594 
124.511719 -534.667969 227.050781 
119.628906 -529.785156 227.050781 
124.511719 -529.785156 227.050781 
124.511719 -534.667969 231.933594 
119.628906 -529.785156 231.933594 
124.511719 -529.785156 231.933594 
129.394531 -534.667969 227.050781 
134.277344 -534.667969 227.050781 
129.394531 -529.785156 227.050781 
129.394531 -534.667969 231.933594 
134.277344 -529.785156 227.050781 
134.277344 -534.667969 231.933594 
129.394531 -529.785156 231.933594 
134.277344 -529.785156 231.933594 
139.160156 -515.136719 202.636719 
139.160156 -510.253906 202.636719 
144.042969 -510.253906 202.636719 
139.160156 -524.902344 207.519531 
139.160156 -520.019531 207.519531 
139.160156 -524.902344 212.402344 
144.042969 -520.019531 207.519531 
144.042969 -524.902344 212.402344 
139.160156 -520.019531 212.402344 
144.042969 -520.019531 212.402344 
148.925781 -524.902344 212.402344 
148.925781 -520.019531 212.402344 
139.160156 -515.136719 207.519531 
144.042969 -515.136719 207.519531 
139.160156 -510.253906 207.519531 
139.160156 -515.136719 212.402344 
144.042969 -510.253906 207.519531 
144.042969 -515.136719 212.402344 
139.160156 -510.253906 212.402344 
144.042969 -510.253906 212.402344 
148.925781 -510.253906 207.519531 
148.925781 -515.136719 212.402344 
148.925781 -510.253906 212.402344 
139.160156 -544.433594 217.285156 
139.160156 -539.550781 217.285156 
139.160156 -544.433594 222.167969 
144.042969 -539.550781 217.285156 
144.042969 -544.433594 222.167969 
139.160156 -539.550781 222.167969 
144.042969 -539.550781 222.167969 
148.925781 -544.433594 222.167969 
148.925781 -539.550781 222.167969 
139.160156 -534.667969 217.285156 
144.042969 -534.667969 217.285156 
139.160156 -529.785156 217.285156 
139.160156 -534.667969 222.167969 
144.042969 -529.785156 217.285156 
144.042969 -534.667969 222.167969 
139.160156 -529.785156 222.167969 
144.042969 -529.785156 222.167969 
139.160156 -544.433594 227.050781 
144.042969 -544.433594 227.050781 
139.160156 -539.550781 227.050781 
139.160156 -544.433594 231.933594 
144.042969 -539.550781 227.050781 
144.042969 -544.433594 231.933594 
139.160156 -539.550781 231.933594 
144.042969 -539.550781 231.933594 
148.925781 -534.667969 217.285156 
148.925781 -529.785156 217.285156 
148.925781 -534.667969 222.167969 
148.925781 -529.785156 222.167969 
148.925781 -544.433594 227.050781 
153.808594 -544.433594 227.050781 
148.925781 -539.550781 227.050781 
148.925781 -544.433594 231.933594 
153.808594 -539.550781 227.050781 
153.808594 -544.433594 231.933594 
139.160156 -534.667969 227.050781 
144.042969 -534.667969 227.050781 
139.160156 -529.785156 227.050781 
139.160156 -534.667969 231.933594 
144.042969 -529.785156 227.050781 
144.042969 -534.667969 231.933594 
139.160156 -529.785156 231.933594 
148.925781 -534.667969 227.050781 
119.628906 -524.902344 217.285156 
124.511719 -524.902344 217.285156 
119.628906 -520.019531 217.285156 
119.628906 -524.902344 222.167969 
124.511719 -520.019531 217.285156 
124.511719 -524.902344 222.167969 
119.628906 -520.019531 222.167969 
124.511719 -520.019531 222.167969 
129.394531 -524.902344 217.285156 
134.277344 -524.902344 217.285156 
129.394531 -520.019531 217.285156 
129.394531 -524.902344 222.167969 
134.277344 -520.019531 217.285156 
134.277344 -524.902344 222.167969 
129.394531 -520.019531 222.167969 
134.277344 -520.019531 222.167969 
119.628906 -515.136719 217.285156 
124.511719 -515.136719 217.285156 
119.628906 -510.253906 217.285156 
119.628906 -515.136719 222.167969 
124.511719 -510.253906 217.285156 
124.511719 -515.136719 222.167969 
119.628906 -510.253906 222.167969 
124.511719 -510.253906 222.167969 
119.628906 -524.902344 227.050781 
124.511719 -524.902344 227.050781 
119.628906 -520.019531 227.050781 
119.628906 -524.902344 231.933594 
124.511719 -520.019531 227.050781 
124.511719 -524.902344 231.933594 
119.628906 -520.019531 231.933594 
124.511719 -520.019531 231.933594 
129.394531 -515.136719 217.285156 
134.277344 -515.136719 217.285156 
129.394531 -510.253906 217.285156 
129.394531 -515.136719 222.167969 
134.277344 -510.253906 217.285156 
134.277344 -515.136719 222.167969 
129.394531 -510.253906 222.167969 
134.277344 -510.253906 222.167969 
129.394531 -524.902344 227.050781 
134.277344 -524.902344 227.050781 
129.394531 -520.019531 227.050781 
129.394531 -524.902344 231.933594 
134.277344 -520.019531 227.050781 
134.277344 -524.902344 231.933594 
129.394531 -520.019531 231.933594 
134.277344 -520.019531 231.933594 
119.628906 -515.136719 227.050781 
124.511719 -515.136719 227.050781 
119.628906 -510.253906 227.050781 
119.628906 -515.136719 231.933594 
124.511719 -510.253906 227.050781 
124.511719 -515.136719 231.933594 
124.511719 -510.253906 231.933594 
129.394531 -515.136719 227.050781 
134.277344 -515.136719 227.050781 
129.394531 -510.253906 227.050781 
129.394531 -515.136719 231.933594 
134.277344 -510.253906 227.050781 
134.277344 -515.136719 231.933594 
129.394531 -510.253906 231.933594 
134.277344 -510.253906 231.933594 
139.160156 -524.902344 217.285156 
144.042969 -524.902344 217.285156 
139.160156 -520.019531 217.285156 
139.160156 -524.902344 222.167969 
144.042969 -520.019531 217.285156 
144.042969 -524.902344 222.167969 
139.160156 -520.019531 222.167969 
144.042969 -520.019531 222.167969 
148.925781 -524.902344 217.285156 
148.925781 -520.019531 217.285156 
148.925781 -524.902344 222.167969 
139.160156 -515.136719 217.285156 
144.042969 -515.136719 217.285156 
139.160156 -510.253906 217.285156 
139.160156 -515.136719 222.167969 
144.042969 -510.253906 217.285156 
144.042969 -515.136719 222.167969 
139.160156 -510.253906 222.167969 
144.042969 -510.253906 222.167969 
139.160156 -524.902344 227.050781 
144.042969 -524.902344 227.050781 
139.160156 -520.019531 227.050781 
144.042969 -520.019531 227.050781 
139.160156 -520.019531 231.933594 
148.925781 -515.136719 217.285156 
148.925781 -510.253906 217.285156 
148.925781 -515.136719 222.167969 
148.925781 -510.253906 222.167969 
139.160156 -515.136719 227.050781 
144.042969 -515.136719 227.050781 
139.160156 -510.253906 227.050781 
139.160156 -515.136719 231.933594 
144.042969 -510.253906 227.050781 
144.042969 -515.136719 231.933594 
139.160156 -510.253906 231.933594 
144.042969 -510.253906 231.933594 
148.925781 -510.253906 227.050781 
148.925781 -510.253906 231.933594 
104.980469 -500.488281 202.636719 
114.746094 -505.371094 202.636719 
109.863281 -500.488281 202.636719 
114.746094 -500.488281 202.636719 
104.980469 -495.605469 197.753906 
104.980469 -505.371094 207.519531 
104.980469 -500.488281 207.519531 
109.863281 -495.605469 197.753906 
114.746094 -495.605469 197.753906 
109.863281 -490.722656 197.753906 
109.863281 -495.605469 202.636719 
114.746094 -490.722656 197.753906 
114.746094 -495.605469 202.636719 
114.746094 -490.722656 202.636719 
109.863281 -505.371094 207.519531 
114.746094 -505.371094 207.519531 
109.863281 -500.488281 207.519531 
109.863281 -505.371094 212.402344 
114.746094 -500.488281 207.519531 
114.746094 -505.371094 212.402344 
114.746094 -500.488281 212.402344 
114.746094 -495.605469 207.519531 
114.746094 -485.839844 197.753906 
109.863281 -505.371094 217.285156 
114.746094 -505.371094 217.285156 
119.628906 -500.488281 197.753906 
119.628906 -505.371094 202.636719 
124.511719 -500.488281 197.753906 
124.511719 -505.371094 202.636719 
119.628906 -500.488281 202.636719 
124.511719 -500.488281 202.636719 
129.394531 -505.371094 197.753906 
134.277344 -505.371094 197.753906 
129.394531 -500.488281 197.753906 
129.394531 -505.371094 202.636719 
134.277344 -500.488281 197.753906 
134.277344 -505.371094 202.636719 
129.394531 -500.488281 202.636719 
134.277344 -500.488281 202.636719 
119.628906 -495.605469 197.753906 
124.511719 -495.605469 197.753906 
119.628906 -490.722656 197.753906 
119.628906 -495.605469 202.636719 
124.511719 -490.722656 197.753906 
124.511719 -495.605469 202.636719 
119.628906 -490.722656 202.636719 
124.511719 -490.722656 202.636719 
119.628906 -505.371094 207.519531 
124.511719 -505.371094 207.519531 
119.628906 -500.488281 207.519531 
119.628906 -505.371094 212.402344 
124.511719 -500.488281 207.519531 
124.511719 -505.371094 212.402344 
119.628906 -500.488281 212.402344 
124.511719 -500.488281 212.402344 
129.394531 -495.605469 197.753906 
134.277344 -495.605469 197.753906 
129.394531 -490.722656 197.753906 
129.394531 -495.605469 202.636719 
134.277344 -490.722656 197.753906 
134.277344 -495.605469 202.636719 
129.394531 -490.722656 202.636719 
134.277344 -490.722656 202.636719 
129.394531 -505.371094 207.519531 
134.277344 -505.371094 207.519531 
129.394531 -500.488281 207.519531 
129.394531 -505.371094 212.402344 
134.277344 -500.488281 207.519531 
134.277344 -505.371094 212.402344 
129.394531 -500.488281 212.402344 
134.277344 -500.488281 212.402344 
119.628906 -495.605469 207.519531 
124.511719 -495.605469 207.519531 
119.628906 -495.605469 212.402344 
124.511719 -490.722656 207.519531 
124.511719 -495.605469 212.402344 
129.394531 -495.605469 207.519531 
134.277344 -495.605469 207.519531 
129.394531 -490.722656 207.519531 
129.394531 -495.605469 212.402344 
134.277344 -490.722656 207.519531 
134.277344 -495.605469 212.402344 
129.394531 -490.722656 212.402344 
134.277344 -490.722656 212.402344 
139.160156 -505.371094 197.753906 
139.160156 -500.488281 197.753906 
139.160156 -505.371094 202.636719 
144.042969 -500.488281 197.753906 
144.042969 -505.371094 202.636719 
139.160156 -500.488281 202.636719 
144.042969 -500.488281 202.636719 
148.925781 -500.488281 202.636719 
139.160156 -495.605469 197.753906 
144.042969 -495.605469 197.753906 
139.160156 -490.722656 197.753906 
139.160156 -495.605469 202.636719 
144.042969 -490.722656 197.753906 
144.042969 -495.605469 202.636719 
139.160156 -490.722656 202.636719 
144.042969 -490.722656 202.636719 
139.160156 -505.371094 207.519531 
144.042969 -505.371094 207.519531 
139.160156 -500.488281 207.519531 
139.160156 -505.371094 212.402344 
144.042969 -500.488281 207.519531 
144.042969 -505.371094 212.402344 
139.160156 -500.488281 212.402344 
144.042969 -500.488281 212.402344 
148.925781 -490.722656 197.753906 
148.925781 -495.605469 202.636719 
153.808594 -495.605469 202.636719 
148.925781 -490.722656 202.636719 
153.808594 -490.722656 202.636719 
148.925781 -505.371094 207.519531 
148.925781 -500.488281 207.519531 
148.925781 -505.371094 212.402344 
153.808594 -500.488281 207.519531 
148.925781 -500.488281 212.402344 
153.808594 -500.488281 212.402344 
139.160156 -495.605469 207.519531 
144.042969 -495.605469 207.519531 
139.160156 -490.722656 207.519531 
139.160156 -495.605469 212.402344 
144.042969 -490.722656 207.519531 
144.042969 -495.605469 212.402344 
139.160156 -490.722656 212.402344 
144.042969 -490.722656 212.402344 
148.925781 -495.605469 207.519531 
153.808594 -495.605469 207.519531 
148.925781 -490.722656 207.519531 
148.925781 -495.605469 212.402344 
153.808594 -490.722656 207.519531 
153.808594 -495.605469 212.402344 
148.925781 -490.722656 212.402344 
153.808594 -490.722656 212.402344 
119.628906 -485.839844 197.753906 
124.511719 -485.839844 197.753906 
129.394531 -485.839844 197.753906 
134.277344 -485.839844 197.753906 
129.394531 -480.957031 197.753906 
129.394531 -485.839844 202.636719 
134.277344 -480.957031 197.753906 
134.277344 -485.839844 202.636719 
134.277344 -480.957031 202.636719 
134.277344 -485.839844 207.519531 
119.628906 -505.371094 217.285156 
124.511719 -505.371094 217.285156 
119.628906 -500.488281 217.285156 
119.628906 -505.371094 222.167969 
124.511719 -500.488281 217.285156 
124.511719 -505.371094 222.167969 
124.511719 -500.488281 222.167969 
129.394531 -505.371094 217.285156 
134.277344 -505.371094 217.285156 
129.394531 -500.488281 217.285156 
129.394531 -505.371094 222.167969 
134.277344 -500.488281 217.285156 
134.277344 -505.371094 222.167969 
129.394531 -500.488281 222.167969 
134.277344 -500.488281 222.167969 
124.511719 -505.371094 227.050781 
129.394531 -495.605469 217.285156 
134.277344 -495.605469 217.285156 
134.277344 -495.605469 222.167969 
129.394531 -505.371094 227.050781 
134.277344 -505.371094 227.050781 
134.277344 -500.488281 227.050781 
134.277344 -505.371094 231.933594 
139.160156 -485.839844 197.753906 
144.042969 -485.839844 197.753906 
139.160156 -480.957031 197.753906 
139.160156 -485.839844 202.636719 
144.042969 -480.957031 197.753906 
144.042969 -485.839844 202.636719 
139.160156 -480.957031 202.636719 
144.042969 -480.957031 202.636719 
148.925781 -485.839844 197.753906 
