4.882812
-209.960938 -522.460938 -170.898438 
-200.195312 -522.460938 -170.898438 
-209.960938 -522.460938 -161.132812 
-200.195312 -522.460938 -161.132812 
-190.429688 -502.929688 -219.726562 
-180.664062 -502.929688 -209.960938 
-190.429688 -541.992188 -190.429688 
-180.664062 -541.992188 -190.429688 
-190.429688 -532.226562 -190.429688 
-190.429688 -541.992188 -180.664062 
-180.664062 -532.226562 -190.429688 
-180.664062 -541.992188 -180.664062 
-190.429688 -532.226562 -180.664062 
-180.664062 -532.226562 -180.664062 
-170.898438 -532.226562 -190.429688 
-170.898438 -541.992188 -180.664062 
-170.898438 -532.226562 -180.664062 
-161.132812 -532.226562 -180.664062 
-190.429688 -522.460938 -190.429688 
-180.664062 -522.460938 -190.429688 
-190.429688 -512.695312 -190.429688 
-190.429688 -522.460938 -180.664062 
-180.664062 -522.460938 -180.664062 
-180.664062 -512.695312 -180.664062 
-190.429688 -541.992188 -170.898438 
-180.664062 -541.992188 -170.898438 
-190.429688 -532.226562 -170.898438 
-190.429688 -541.992188 -161.132812 
-180.664062 -532.226562 -170.898438 
-180.664062 -541.992188 -161.132812 
-190.429688 -532.226562 -161.132812 
-180.664062 -532.226562 -161.132812 
-170.898438 -522.460938 -190.429688 
-161.132812 -522.460938 -190.429688 
-170.898438 -522.460938 -180.664062 
-161.132812 -512.695312 -190.429688 
-161.132812 -522.460938 -180.664062 
-170.898438 -512.695312 -180.664062 
-161.132812 -512.695312 -180.664062 
-170.898438 -541.992188 -170.898438 
-161.132812 -541.992188 -170.898438 
-170.898438 -532.226562 -170.898438 
-170.898438 -541.992188 -161.132812 
-161.132812 -532.226562 -170.898438 
-161.132812 -541.992188 -161.132812 
-170.898438 -532.226562 -161.132812 
-161.132812 -532.226562 -161.132812 
-190.429688 -522.460938 -170.898438 
-180.664062 -522.460938 -170.898438 
-190.429688 -522.460938 -161.132812 
-180.664062 -522.460938 -161.132812 
-170.898438 -522.460938 -170.898438 
-161.132812 -522.460938 -170.898438 
-170.898438 -522.460938 -161.132812 
-161.132812 -522.460938 -161.132812 
-151.367188 -522.460938 -190.429688 
-151.367188 -512.695312 -190.429688 
-151.367188 -522.460938 -180.664062 
-141.601562 -522.460938 -180.664062 
-151.367188 -512.695312 -180.664062 
-141.601562 -512.695312 -180.664062 
-151.367188 -532.226562 -170.898438 
-151.367188 -541.992188 -161.132812 
-141.601562 -532.226562 -170.898438 
-151.367188 -532.226562 -161.132812 
-141.601562 -532.226562 -161.132812 
-131.835938 -522.460938 -180.664062 
-131.835938 -532.226562 -161.132812 
-141.601562 -522.460938 -170.898438 
-151.367188 -512.695312 -170.898438 
-151.367188 -522.460938 -161.132812 
-141.601562 -522.460938 -161.132812 
-131.835938 -522.460938 -170.898438 
-122.070312 -522.460938 -170.898438 
-131.835938 -512.695312 -170.898438 
-122.070312 -522.460938 -161.132812 
-112.304688 -522.460938 -170.898438 
-112.304688 -522.460938 -161.132812 
-102.539062 -522.460938 -161.132812 
-297.851562 -463.867188 -307.617188 
-288.085938 -463.867188 -297.851562 
-268.554688 -463.867188 -288.085938 
-161.132812 -317.382812 -200.195312 
-170.898438 -317.382812 -190.429688 
-161.132812 -317.382812 -190.429688 
-170.898438 -317.382812 -180.664062 
-161.132812 -317.382812 -180.664062 
-161.132812 -317.382812 -170.898438 
-161.132812 -317.382812 -161.132812 
-258.789062 -551.757812 -151.367188 
-249.023438 -561.523438 -151.367188 
-249.023438 -551.757812 -151.367188 
-239.257812 -561.523438 -141.601562 
-239.257812 -551.757812 -141.601562 
-229.492188 -561.523438 -151.367188 
-219.726562 -561.523438 -151.367188 
-229.492188 -551.757812 -151.367188 
-219.726562 -551.757812 -151.367188 
-219.726562 -561.523438 -141.601562 
-229.492188 -551.757812 -141.601562 
-219.726562 -551.757812 -141.601562 
-209.960938 -561.523438 -151.367188 
-200.195312 -561.523438 -151.367188 
-209.960938 -551.757812 -151.367188 
-209.960938 -561.523438 -141.601562 
-200.195312 -551.757812 -151.367188 
-200.195312 -561.523438 -141.601562 
-209.960938 -551.757812 -141.601562 
-200.195312 -551.757812 -141.601562 
-229.492188 -561.523438 -131.835938 
-219.726562 -561.523438 -131.835938 
-229.492188 -551.757812 -131.835938 
-219.726562 -551.757812 -131.835938 
-219.726562 -561.523438 -122.070312 
-219.726562 -551.757812 -122.070312 
-209.960938 -561.523438 -131.835938 
-200.195312 -561.523438 -131.835938 
-209.960938 -551.757812 -131.835938 
-209.960938 -561.523438 -122.070312 
-200.195312 -551.757812 -131.835938 
-200.195312 -561.523438 -122.070312 
-209.960938 -551.757812 -122.070312 
-200.195312 -551.757812 -122.070312 
-190.429688 -561.523438 -151.367188 
-180.664062 -561.523438 -151.367188 
-190.429688 -551.757812 -151.367188 
-190.429688 -561.523438 -141.601562 
-180.664062 -551.757812 -151.367188 
-180.664062 -561.523438 -141.601562 
-190.429688 -551.757812 -141.601562 
-180.664062 -551.757812 -141.601562 
-170.898438 -551.757812 -151.367188 
-170.898438 -561.523438 -141.601562 
-161.132812 -551.757812 -151.367188 
-170.898438 -551.757812 -141.601562 
-161.132812 -551.757812 -141.601562 
-190.429688 -561.523438 -131.835938 
-180.664062 -561.523438 -131.835938 
-190.429688 -551.757812 -131.835938 
-180.664062 -551.757812 -131.835938 
-190.429688 -551.757812 -122.070312 
-180.664062 -551.757812 -122.070312 
-170.898438 -561.523438 -131.835938 
-161.132812 -561.523438 -131.835938 
-170.898438 -551.757812 -131.835938 
-170.898438 -561.523438 -122.070312 
-161.132812 -551.757812 -131.835938 
-170.898438 -551.757812 -122.070312 
-161.132812 -551.757812 -122.070312 
-209.960938 -551.757812 -112.304688 
-200.195312 -551.757812 -112.304688 
-190.429688 -561.523438 -112.304688 
-190.429688 -551.757812 -112.304688 
-180.664062 -551.757812 -112.304688 
-190.429688 -551.757812 -102.539062 
-180.664062 -551.757812 -102.539062 
-170.898438 -551.757812 -112.304688 
-161.132812 -551.757812 -112.304688 
-170.898438 -551.757812 -102.539062 
-161.132812 -551.757812 -102.539062 
-180.664062 -551.757812 -92.773438 
-170.898438 -551.757812 -92.773438 
-161.132812 -551.757812 -92.773438 
-161.132812 -551.757812 -83.007812 
-249.023438 -541.992188 -151.367188 
-239.257812 -541.992188 -151.367188 
-249.023438 -532.226562 -151.367188 
-239.257812 -532.226562 -151.367188 
-239.257812 -541.992188 -141.601562 
-239.257812 -532.226562 -141.601562 
-229.492188 -541.992188 -151.367188 
-219.726562 -541.992188 -151.367188 
-229.492188 -532.226562 -151.367188 
-229.492188 -541.992188 -141.601562 
-219.726562 -532.226562 -151.367188 
-219.726562 -541.992188 -141.601562 
-229.492188 -532.226562 -141.601562 
-219.726562 -532.226562 -141.601562 
-209.960938 -541.992188 -151.367188 
-200.195312 -541.992188 -151.367188 
-209.960938 -532.226562 -151.367188 
-209.960938 -541.992188 -141.601562 
-200.195312 -532.226562 -151.367188 
-200.195312 -541.992188 -141.601562 
-209.960938 -532.226562 -141.601562 
-200.195312 -532.226562 -141.601562 
-229.492188 -541.992188 -131.835938 
-219.726562 -541.992188 -131.835938 
-229.492188 -532.226562 -131.835938 
-219.726562 -532.226562 -131.835938 
-200.195312 -522.460938 -151.367188 
-209.960938 -541.992188 -131.835938 
-200.195312 -541.992188 -131.835938 
-209.960938 -532.226562 -131.835938 
-209.960938 -541.992188 -122.070312 
-200.195312 -532.226562 -131.835938 
-200.195312 -541.992188 -122.070312 
-209.960938 -532.226562 -122.070312 
-200.195312 -532.226562 -122.070312 
-190.429688 -541.992188 -151.367188 
-180.664062 -541.992188 -151.367188 
-190.429688 -532.226562 -151.367188 
-190.429688 -541.992188 -141.601562 
-180.664062 -532.226562 -151.367188 
-180.664062 -541.992188 -141.601562 
-190.429688 -532.226562 -141.601562 
-180.664062 -532.226562 -141.601562 
-170.898438 -541.992188 -151.367188 
-161.132812 -541.992188 -151.367188 
-170.898438 -532.226562 -151.367188 
-170.898438 -541.992188 -141.601562 
-161.132812 -532.226562 -151.367188 
-161.132812 -541.992188 -141.601562 
-170.898438 -532.226562 -141.601562 
-161.132812 -532.226562 -141.601562 
-190.429688 -522.460938 -151.367188 
-180.664062 -522.460938 -151.367188 
-190.429688 -541.992188 -131.835938 
-180.664062 -541.992188 -131.835938 
-190.429688 -532.226562 -131.835938 
-190.429688 -541.992188 -122.070312 
-180.664062 -532.226562 -131.835938 
-180.664062 -541.992188 -122.070312 
-190.429688 -532.226562 -122.070312 
-180.664062 -532.226562 -122.070312 
-170.898438 -522.460938 -151.367188 
-161.132812 -522.460938 -151.367188 
-170.898438 -522.460938 -141.601562 
-161.132812 -522.460938 -141.601562 
-170.898438 -541.992188 -131.835938 
-161.132812 -541.992188 -131.835938 
-170.898438 -532.226562 -131.835938 
-170.898438 -541.992188 -122.070312 
-161.132812 -532.226562 -131.835938 
-161.132812 -541.992188 -122.070312 
-170.898438 -532.226562 -122.070312 
-161.132812 -532.226562 -122.070312 
-200.195312 -541.992188 -112.304688 
-190.429688 -541.992188 -112.304688 
-180.664062 -541.992188 -112.304688 
-190.429688 -541.992188 -102.539062 
-180.664062 -532.226562 -112.304688 
-180.664062 -541.992188 -102.539062 
-170.898438 -541.992188 -112.304688 
-161.132812 -541.992188 -112.304688 
-170.898438 -532.226562 -112.304688 
-170.898438 -541.992188 -102.539062 
-161.132812 -532.226562 -112.304688 
-161.132812 -541.992188 -102.539062 
-170.898438 -532.226562 -102.539062 
-161.132812 -532.226562 -102.539062 
-180.664062 -541.992188 -92.773438 
-170.898438 -541.992188 -92.773438 
-161.132812 -541.992188 -92.773438 
-170.898438 -541.992188 -83.007812 
-161.132812 -532.226562 -92.773438 
-161.132812 -541.992188 -83.007812 
-131.835938 -317.382812 -219.726562 
-122.070312 -317.382812 -219.726562 
-141.601562 -317.382812 -209.960938 
-151.367188 -317.382812 -200.195312 
-141.601562 -317.382812 -200.195312 
-122.070312 -327.148438 -209.960938 
-131.835938 -317.382812 -209.960938 
-131.835938 -327.148438 -200.195312 
-122.070312 -317.382812 -209.960938 
-122.070312 -327.148438 -200.195312 
-131.835938 -317.382812 -200.195312 
-122.070312 -317.382812 -200.195312 
-112.304688 -317.382812 -219.726562 
-92.773438 -317.382812 -219.726562 
-112.304688 -327.148438 -209.960938 
-112.304688 -317.382812 -209.960938 
-112.304688 -327.148438 -200.195312 
-102.539062 -317.382812 -209.960938 
-112.304688 -317.382812 -200.195312 
-102.539062 -317.382812 -200.195312 
-83.007812 -317.382812 -209.960938 
-83.007812 -327.148438 -200.195312 
-92.773438 -317.382812 -200.195312 
-141.601562 -327.148438 -190.429688 
-151.367188 -317.382812 -190.429688 
-141.601562 -317.382812 -190.429688 
-141.601562 -327.148438 -180.664062 
-151.367188 -317.382812 -180.664062 
-141.601562 -317.382812 -180.664062 
-131.835938 -327.148438 -190.429688 
-122.070312 -327.148438 -190.429688 
-131.835938 -317.382812 -190.429688 
-131.835938 -327.148438 -180.664062 
-122.070312 -317.382812 -190.429688 
-122.070312 -327.148438 -180.664062 
-131.835938 -317.382812 -180.664062 
-122.070312 -317.382812 -180.664062 
-122.070312 -336.914062 -161.132812 
-141.601562 -327.148438 -170.898438 
-151.367188 -317.382812 -170.898438 
-141.601562 -317.382812 -170.898438 
-141.601562 -327.148438 -161.132812 
-151.367188 -317.382812 -161.132812 
-141.601562 -317.382812 -161.132812 
-131.835938 -327.148438 -170.898438 
-122.070312 -327.148438 -170.898438 
-131.835938 -317.382812 -170.898438 
-131.835938 -327.148438 -161.132812 
-122.070312 -317.382812 -170.898438 
-122.070312 -327.148438 -161.132812 
-131.835938 -317.382812 -161.132812 
-122.070312 -317.382812 -161.132812 
-112.304688 -327.148438 -190.429688 
-102.539062 -327.148438 -190.429688 
-112.304688 -317.382812 -190.429688 
-112.304688 -327.148438 -180.664062 
-102.539062 -317.382812 -190.429688 
-102.539062 -327.148438 -180.664062 
-112.304688 -317.382812 -180.664062 
-102.539062 -317.382812 -180.664062 
-112.304688 -336.914062 -170.898438 
-102.539062 -336.914062 -170.898438 
-112.304688 -336.914062 -161.132812 
-102.539062 -336.914062 -161.132812 
-83.007812 -327.148438 -190.429688 
-92.773438 -317.382812 -190.429688 
-92.773438 -327.148438 -180.664062 
-83.007812 -317.382812 -190.429688 
-92.773438 -317.382812 -180.664062 
-83.007812 -317.382812 -180.664062 
-92.773438 -336.914062 -170.898438 
-92.773438 -336.914062 -161.132812 
-112.304688 -327.148438 -170.898438 
-102.539062 -327.148438 -170.898438 
-112.304688 -317.382812 -170.898438 
-112.304688 -327.148438 -161.132812 
-102.539062 -317.382812 -170.898438 
-102.539062 -327.148438 -161.132812 
-112.304688 -317.382812 -161.132812 
-102.539062 -317.382812 -161.132812 
-92.773438 -327.148438 -170.898438 
-83.007812 -327.148438 -170.898438 
-92.773438 -317.382812 -170.898438 
-92.773438 -327.148438 -161.132812 
-83.007812 -317.382812 -170.898438 
-83.007812 -327.148438 -161.132812 
-92.773438 -317.382812 -161.132812 
-83.007812 -317.382812 -161.132812 
-73.242188 -317.382812 -200.195312 
-73.242188 -327.148438 -190.429688 
-63.476562 -327.148438 -190.429688 
-73.242188 -317.382812 -190.429688 
-73.242188 -327.148438 -180.664062 
-63.476562 -317.382812 -190.429688 
-63.476562 -327.148438 -180.664062 
-73.242188 -317.382812 -180.664062 
-63.476562 -317.382812 -180.664062 
-63.476562 -336.914062 -161.132812 
-53.710938 -317.382812 -190.429688 
-53.710938 -327.148438 -180.664062 
-43.945312 -327.148438 -180.664062 
-53.710938 -317.382812 -180.664062 
-43.945312 -317.382812 -180.664062 
-73.242188 -327.148438 -170.898438 
-63.476562 -327.148438 -170.898438 
-73.242188 -317.382812 -170.898438 
-73.242188 -327.148438 -161.132812 
-63.476562 -317.382812 -170.898438 
-63.476562 -327.148438 -161.132812 
-73.242188 -317.382812 -161.132812 
-63.476562 -317.382812 -161.132812 
-53.710938 -327.148438 -170.898438 
-43.945312 -327.148438 -170.898438 
-53.710938 -317.382812 -170.898438 
-53.710938 -327.148438 -161.132812 
-43.945312 -317.382812 -170.898438 
-43.945312 -327.148438 -161.132812 
-53.710938 -317.382812 -161.132812 
-43.945312 -317.382812 -161.132812 
-34.179688 -327.148438 -170.898438 
-34.179688 -317.382812 -170.898438 
-34.179688 -327.148438 -161.132812 
-24.414062 -327.148438 -161.132812 
-34.179688 -317.382812 -161.132812 
-24.414062 -317.382812 -161.132812 
-151.367188 -551.757812 -141.601562 
-151.367188 -551.757812 -131.835938 
-141.601562 -551.757812 -131.835938 
-151.367188 -551.757812 -122.070312 
-141.601562 -551.757812 -122.070312 
-131.835938 -551.757812 -122.070312 
-151.367188 -551.757812 -112.304688 
-141.601562 -551.757812 -112.304688 
-151.367188 -551.757812 -102.539062 
-141.601562 -551.757812 -102.539062 
-131.835938 -551.757812 -112.304688 
-122.070312 -551.757812 -112.304688 
-131.835938 -551.757812 -102.539062 
-122.070312 -551.757812 -102.539062 
-151.367188 -551.757812 -92.773438 
-141.601562 -551.757812 -92.773438 
-151.367188 -551.757812 -83.007812 
-141.601562 -551.757812 -83.007812 
-131.835938 -551.757812 -92.773438 
-122.070312 -551.757812 -92.773438 
-131.835938 -551.757812 -83.007812 
-122.070312 -551.757812 -83.007812 
-112.304688 -551.757812 -112.304688 
-112.304688 -551.757812 -102.539062 
-102.539062 -551.757812 -102.539062 
-92.773438 -551.757812 -102.539062 
-112.304688 -551.757812 -92.773438 
-102.539062 -551.757812 -92.773438 
-112.304688 -551.757812 -83.007812 
-102.539062 -551.757812 -83.007812 
-92.773438 -551.757812 -92.773438 
-83.007812 -551.757812 -92.773438 
-92.773438 -551.757812 -83.007812 
-83.007812 -551.757812 -83.007812 
-73.242188 -551.757812 -83.007812 
-151.367188 -541.992188 -151.367188 
-141.601562 -541.992188 -151.367188 
-151.367188 -532.226562 -151.367188 
-151.367188 -541.992188 -141.601562 
-141.601562 -532.226562 -151.367188 
-141.601562 -541.992188 -141.601562 
-151.367188 -532.226562 -141.601562 
-141.601562 -532.226562 -141.601562 
-131.835938 -541.992188 -141.601562 
-131.835938 -532.226562 -141.601562 
-122.070312 -532.226562 -141.601562 
-151.367188 -522.460938 -151.367188 
-141.601562 -522.460938 -151.367188 
-151.367188 -522.460938 -141.601562 
-141.601562 -522.460938 -141.601562 
-151.367188 -541.992188 -131.835938 
-141.601562 -541.992188 -131.835938 
-151.367188 -532.226562 -131.835938 
-151.367188 -541.992188 -122.070312 
-141.601562 -532.226562 -131.835938 
-141.601562 -541.992188 -122.070312 
-151.367188 -532.226562 -122.070312 
-141.601562 -532.226562 -122.070312 
-131.835938 -522.460938 -151.367188 
-122.070312 -522.460938 -151.367188 
-131.835938 -522.460938 -141.601562 
-122.070312 -522.460938 -141.601562 
-131.835938 -541.992188 -131.835938 
-122.070312 -541.992188 -131.835938 
-131.835938 -532.226562 -131.835938 
-131.835938 -541.992188 -122.070312 
-122.070312 -532.226562 -131.835938 
-122.070312 -541.992188 -122.070312 
-131.835938 -532.226562 -122.070312 
-122.070312 -532.226562 -122.070312 
-141.601562 -522.460938 -131.835938 
-131.835938 -522.460938 -131.835938 
-122.070312 -522.460938 -131.835938 
-112.304688 -532.226562 -151.367188 
-112.304688 -532.226562 -141.601562 
-102.539062 -522.460938 -151.367188 
-112.304688 -522.460938 -141.601562 
-112.304688 -541.992188 -131.835938 
-112.304688 -532.226562 -131.835938 
-112.304688 -541.992188 -122.070312 
-102.539062 -532.226562 -131.835938 
-102.539062 -541.992188 -122.070312 
-112.304688 -532.226562 -122.070312 
-102.539062 -532.226562 -122.070312 
-92.773438 -541.992188 -122.070312 
-92.773438 -532.226562 -122.070312 
-112.304688 -522.460938 -131.835938 
-102.539062 -522.460938 -131.835938 
-112.304688 -522.460938 -122.070312 
-102.539062 -522.460938 -122.070312 
-92.773438 -522.460938 -122.070312 
-151.367188 -541.992188 -112.304688 
-141.601562 -541.992188 -112.304688 
-151.367188 -532.226562 -112.304688 
-151.367188 -541.992188 -102.539062 
-141.601562 -532.226562 -112.304688 
-141.601562 -541.992188 -102.539062 
-151.367188 -532.226562 -102.539062 
-141.601562 -532.226562 -102.539062 
-131.835938 -541.992188 -112.304688 
-122.070312 -541.992188 -112.304688 
-131.835938 -532.226562 -112.304688 
-131.835938 -541.992188 -102.539062 
-122.070312 -532.226562 -112.304688 
-122.070312 -541.992188 -102.539062 
-131.835938 -532.226562 -102.539062 
-122.070312 -532.226562 -102.539062 
-151.367188 -541.992188 -92.773438 
-141.601562 -541.992188 -92.773438 
-151.367188 -532.226562 -92.773438 
-151.367188 -541.992188 -83.007812 
-141.601562 -532.226562 -92.773438 
-141.601562 -541.992188 -83.007812 
-151.367188 -532.226562 -83.007812 
-141.601562 -532.226562 -83.007812 
-131.835938 -522.460938 -102.539062 
-122.070312 -522.460938 -102.539062 
-131.835938 -541.992188 -92.773438 
-122.070312 -541.992188 -92.773438 
-131.835938 -532.226562 -92.773438 
-131.835938 -541.992188 -83.007812 
-122.070312 -532.226562 -92.773438 
-122.070312 -541.992188 -83.007812 
-131.835938 -532.226562 -83.007812 
-122.070312 -532.226562 -83.007812 
-141.601562 -522.460938 -92.773438 
-141.601562 -522.460938 -83.007812 
-131.835938 -522.460938 -92.773438 
-122.070312 -522.460938 -92.773438 
-131.835938 -522.460938 -83.007812 
-122.070312 -522.460938 -83.007812 
-112.304688 -541.992188 -112.304688 
-102.539062 -541.992188 -112.304688 
-112.304688 -532.226562 -112.304688 
-112.304688 -541.992188 -102.539062 
-102.539062 -532.226562 -112.304688 
-102.539062 -541.992188 -102.539062 
-112.304688 -532.226562 -102.539062 
-102.539062 -532.226562 -102.539062 
-92.773438 -541.992188 -112.304688 
-92.773438 -532.226562 -112.304688 
-92.773438 -541.992188 -102.539062 
-83.007812 -532.226562 -112.304688 
-83.007812 -541.992188 -102.539062 
-92.773438 -532.226562 -102.539062 
-83.007812 -532.226562 -102.539062 
-112.304688 -522.460938 -102.539062 
-102.539062 -522.460938 -102.539062 
-112.304688 -541.992188 -92.773438 
-102.539062 -541.992188 -92.773438 
-112.304688 -532.226562 -92.773438 
-112.304688 -541.992188 -83.007812 
-102.539062 -532.226562 -92.773438 
-102.539062 -541.992188 -83.007812 
-112.304688 -532.226562 -83.007812 
-102.539062 -532.226562 -83.007812 
-92.773438 -522.460938 -102.539062 
-83.007812 -522.460938 -102.539062 
-92.773438 -541.992188 -92.773438 
-83.007812 -541.992188 -92.773438 
-92.773438 -532.226562 -92.773438 
-92.773438 -541.992188 -83.007812 
-83.007812 -532.226562 -92.773438 
-83.007812 -541.992188 -83.007812 
-92.773438 -532.226562 -83.007812 
-83.007812 -532.226562 -83.007812 
-112.304688 -522.460938 -92.773438 
-102.539062 -522.460938 -92.773438 
-112.304688 -522.460938 -83.007812 
-102.539062 -512.695312 -92.773438 
-102.539062 -522.460938 -83.007812 
-92.773438 -522.460938 -92.773438 
-83.007812 -522.460938 -92.773438 
-92.773438 -512.695312 -92.773438 
-92.773438 -522.460938 -83.007812 
-83.007812 -512.695312 -92.773438 
-83.007812 -522.460938 -83.007812 
-83.007812 -512.695312 -83.007812 
-92.773438 -551.757812 -73.242188 
-83.007812 -551.757812 -73.242188 
-73.242188 -541.992188 -83.007812 
-73.242188 -532.226562 -83.007812 
-73.242188 -512.695312 -92.773438 
-73.242188 -522.460938 -83.007812 
-73.242188 -512.695312 -83.007812 
-63.476562 -512.695312 -83.007812 
-73.242188 -551.757812 -73.242188 
-4.882812 -620.117188 -14.648438 
-14.648438 -620.117188 -4.882812 
-4.882812 -620.117188 -4.882812 
-151.367188 -541.992188 -73.242188 
-141.601562 -541.992188 -73.242188 
-151.367188 -532.226562 -73.242188 
-141.601562 -532.226562 -73.242188 
-141.601562 -541.992188 -63.476562 
-151.367188 -532.226562 -63.476562 
-141.601562 -532.226562 -63.476562 
-131.835938 -541.992188 -73.242188 
-122.070312 -541.992188 -73.242188 
-131.835938 -532.226562 -73.242188 
-131.835938 -541.992188 -63.476562 
-122.070312 -532.226562 -73.242188 
-122.070312 -541.992188 -63.476562 
-131.835938 -532.226562 -63.476562 
-122.070312 -532.226562 -63.476562 
-131.835938 -522.460938 -73.242188 
-122.070312 -522.460938 -73.242188 
-131.835938 -522.460938 -63.476562 
-122.070312 -522.460938 -63.476562 
-122.070312 -541.992188 -53.710938 
-131.835938 -532.226562 -53.710938 
-122.070312 -532.226562 -53.710938 
-122.070312 -532.226562 -43.945312 
-122.070312 -522.460938 -53.710938 
-122.070312 -522.460938 -43.945312 
-112.304688 -541.992188 -73.242188 
-102.539062 -541.992188 -73.242188 
-112.304688 -532.226562 -73.242188 
-112.304688 -541.992188 -63.476562 
-102.539062 -532.226562 -73.242188 
-102.539062 -541.992188 -63.476562 
-112.304688 -532.226562 -63.476562 
-102.539062 -532.226562 -63.476562 
-92.773438 -541.992188 -73.242188 
-83.007812 -541.992188 -73.242188 
-92.773438 -532.226562 -73.242188 
-92.773438 -541.992188 -63.476562 
-83.007812 -532.226562 -73.242188 
-83.007812 -541.992188 -63.476562 
-92.773438 -532.226562 -63.476562 
-83.007812 -532.226562 -63.476562 
-112.304688 -522.460938 -73.242188 
-102.539062 -522.460938 -73.242188 
-112.304688 -522.460938 -63.476562 
-102.539062 -512.695312 -73.242188 
-102.539062 -522.460938 -63.476562 
-112.304688 -512.695312 -63.476562 
-102.539062 -512.695312 -63.476562 
-112.304688 -541.992188 -53.710938 
-102.539062 -541.992188 -53.710938 
-112.304688 -532.226562 -53.710938 
-102.539062 -532.226562 -53.710938 
-112.304688 -532.226562 -43.945312 
-102.539062 -532.226562 -43.945312 
-92.773438 -522.460938 -73.242188 
-83.007812 -522.460938 -73.242188 
-92.773438 -512.695312 -73.242188 
-92.773438 -522.460938 -63.476562 
-83.007812 -512.695312 -73.242188 
-83.007812 -522.460938 -63.476562 
-92.773438 -512.695312 -63.476562 
-83.007812 -512.695312 -63.476562 
-92.773438 -541.992188 -53.710938 
-83.007812 -541.992188 -53.710938 
-92.773438 -532.226562 -53.710938 
-83.007812 -532.226562 -53.710938 
-92.773438 -532.226562 -43.945312 
-83.007812 -532.226562 -43.945312 
-112.304688 -522.460938 -53.710938 
-102.539062 -522.460938 -53.710938 
-112.304688 -522.460938 -43.945312 
-102.539062 -512.695312 -53.710938 
-102.539062 -522.460938 -43.945312 
-102.539062 -512.695312 -43.945312 
-92.773438 -522.460938 -53.710938 
-83.007812 -522.460938 -53.710938 
-92.773438 -512.695312 -53.710938 
-92.773438 -522.460938 -43.945312 
-83.007812 -512.695312 -53.710938 
-83.007812 -522.460938 -43.945312 
-92.773438 -512.695312 -43.945312 
-83.007812 -512.695312 -43.945312 
-83.007812 -502.929688 -63.476562 
-83.007812 -502.929688 -53.710938 
-92.773438 -532.226562 -34.179688 
-83.007812 -532.226562 -34.179688 
-112.304688 -522.460938 -34.179688 
-102.539062 -522.460938 -34.179688 
-102.539062 -522.460938 -24.414062 
-92.773438 -522.460938 -34.179688 
-83.007812 -522.460938 -34.179688 
-92.773438 -512.695312 -34.179688 
-92.773438 -522.460938 -24.414062 
-83.007812 -512.695312 -34.179688 
-83.007812 -522.460938 -24.414062 
-92.773438 -512.695312 -24.414062 
-83.007812 -512.695312 -24.414062 
-92.773438 -522.460938 -14.648438 
-83.007812 -522.460938 -14.648438 
-83.007812 -512.695312 -14.648438 
-73.242188 -541.992188 -73.242188 
-73.242188 -532.226562 -73.242188 
-73.242188 -541.992188 -63.476562 
-73.242188 -532.226562 -63.476562 
-63.476562 -532.226562 -63.476562 
-73.242188 -522.460938 -73.242188 
-63.476562 -522.460938 -73.242188 
-73.242188 -512.695312 -73.242188 
-73.242188 -522.460938 -63.476562 
-63.476562 -512.695312 -73.242188 
-63.476562 -522.460938 -63.476562 
-73.242188 -512.695312 -63.476562 
-63.476562 -512.695312 -63.476562 
-73.242188 -541.992188 -53.710938 
-63.476562 -541.992188 -53.710938 
-73.242188 -532.226562 -53.710938 
-63.476562 -532.226562 -53.710938 
-63.476562 -541.992188 -43.945312 
-73.242188 -532.226562 -43.945312 
-63.476562 -532.226562 -43.945312 
-53.710938 -512.695312 -73.242188 
-53.710938 -522.460938 -63.476562 
-53.710938 -512.695312 -63.476562 
-43.945312 -512.695312 -63.476562 
-53.710938 -532.226562 -43.945312 
-73.242188 -522.460938 -53.710938 
-63.476562 -522.460938 -53.710938 
-73.242188 -512.695312 -53.710938 
-73.242188 -522.460938 -43.945312 
-63.476562 -512.695312 -53.710938 
-63.476562 -522.460938 -43.945312 
-73.242188 -512.695312 -43.945312 
-63.476562 -512.695312 -43.945312 
-53.710938 -522.460938 -53.710938 
-53.710938 -512.695312 -53.710938 
-53.710938 -522.460938 -43.945312 
-43.945312 -512.695312 -53.710938 
-43.945312 -522.460938 -43.945312 
-53.710938 -512.695312 -43.945312 
-43.945312 -512.695312 -43.945312 
-24.414062 -522.460938 -53.710938 
-34.179688 -512.695312 -43.945312 
-73.242188 -502.929688 -73.242188 
-63.476562 -502.929688 -73.242188 
-73.242188 -502.929688 -63.476562 
-63.476562 -502.929688 -63.476562 
-53.710938 -502.929688 -73.242188 
-53.710938 -502.929688 -63.476562 
-73.242188 -502.929688 -53.710938 
-63.476562 -502.929688 -53.710938 
-73.242188 -502.929688 -43.945312 
-63.476562 -502.929688 -43.945312 
-53.710938 -502.929688 -53.710938 
-43.945312 -502.929688 -53.710938 
-53.710938 -502.929688 -43.945312 
-43.945312 -502.929688 -43.945312 
-73.242188 -532.226562 -34.179688 
-63.476562 -532.226562 -34.179688 
-53.710938 -532.226562 -34.179688 
-43.945312 -532.226562 -34.179688 
-73.242188 -522.460938 -34.179688 
-63.476562 -522.460938 -34.179688 
-73.242188 -512.695312 -34.179688 
-73.242188 -522.460938 -24.414062 
-63.476562 -512.695312 -34.179688 
-63.476562 -522.460938 -24.414062 
-73.242188 -512.695312 -24.414062 
-63.476562 -512.695312 -24.414062 
-53.710938 -522.460938 -34.179688 
-43.945312 -522.460938 -34.179688 
-53.710938 -512.695312 -34.179688 
-53.710938 -522.460938 -24.414062 
-43.945312 -512.695312 -34.179688 
-43.945312 -522.460938 -24.414062 
-53.710938 -512.695312 -24.414062 
-43.945312 -512.695312 -24.414062 
-73.242188 -522.460938 -14.648438 
-63.476562 -522.460938 -14.648438 
-73.242188 -512.695312 -14.648438 
-63.476562 -512.695312 -14.648438 
-73.242188 -512.695312 -4.882812 
-63.476562 -512.695312 -4.882812 
-53.710938 -522.460938 -14.648438 
-43.945312 -522.460938 -14.648438 
-53.710938 -512.695312 -14.648438 
-43.945312 -512.695312 -14.648438 
-43.945312 -522.460938 -4.882812 
-53.710938 -512.695312 -4.882812 
-43.945312 -512.695312 -4.882812 
-34.179688 -502.929688 -43.945312 
-34.179688 -532.226562 -24.414062 
-34.179688 -522.460938 -34.179688 
-34.179688 -512.695312 -34.179688 
-34.179688 -522.460938 -24.414062 
-24.414062 -522.460938 -24.414062 
-34.179688 -512.695312 -24.414062 
-24.414062 -512.695312 -24.414062 
-14.648438 -522.460938 -34.179688 
-14.648438 -512.695312 -34.179688 
-4.882812 -512.695312 -24.414062 
-34.179688 -522.460938 -14.648438 
-24.414062 -522.460938 -14.648438 
-34.179688 -512.695312 -14.648438 
-34.179688 -522.460938 -4.882812 
-24.414062 -512.695312 -14.648438 
-24.414062 -522.460938 -4.882812 
-34.179688 -512.695312 -4.882812 
-24.414062 -512.695312 -4.882812 
-14.648438 -512.695312 -14.648438 
-14.648438 -522.460938 -4.882812 
-4.882812 -512.695312 -14.648438 
-14.648438 -512.695312 -4.882812 
-4.882812 -512.695312 -4.882812 
-73.242188 -502.929688 -34.179688 
-63.476562 -502.929688 -34.179688 
-63.476562 -502.929688 -24.414062 
-53.710938 -502.929688 -34.179688 
-43.945312 -502.929688 -34.179688 
-53.710938 -502.929688 -24.414062 
-43.945312 -502.929688 -24.414062 
-63.476562 -502.929688 -14.648438 
-53.710938 -502.929688 -14.648438 
-43.945312 -502.929688 -14.648438 
-53.710938 -502.929688 -4.882812 
-43.945312 -493.164062 -14.648438 
-43.945312 -502.929688 -4.882812 
-34.179688 -502.929688 -34.179688 
-24.414062 -502.929688 -34.179688 
-34.179688 -502.929688 -24.414062 
-24.414062 -493.164062 -34.179688 
-24.414062 -502.929688 -24.414062 
-34.179688 -493.164062 -24.414062 
-24.414062 -493.164062 -24.414062 
-14.648438 -502.929688 -34.179688 
-4.882812 -502.929688 -24.414062 
-14.648438 -493.164062 -24.414062 
-4.882812 -493.164062 -24.414062 
-24.414062 -483.398438 -24.414062 
-34.179688 -502.929688 -14.648438 
-24.414062 -502.929688 -14.648438 
-34.179688 -493.164062 -14.648438 
-34.179688 -502.929688 -4.882812 
-24.414062 -493.164062 -14.648438 
-24.414062 -502.929688 -4.882812 
-34.179688 -493.164062 -4.882812 
-24.414062 -493.164062 -4.882812 
-14.648438 -483.398438 -24.414062 
-4.882812 -483.398438 -24.414062 
-14.648438 -502.929688 -14.648438 
-4.882812 -502.929688 -14.648438 
-14.648438 -493.164062 -14.648438 
-14.648438 -502.929688 -4.882812 
-4.882812 -493.164062 -14.648438 
-4.882812 -502.929688 -4.882812 
-14.648438 -493.164062 -4.882812 
-4.882812 -493.164062 -4.882812 
-24.414062 -483.398438 -14.648438 
-24.414062 -483.398438 -4.882812 
-14.648438 -483.398438 -14.648438 
-4.882812 -483.398438 -14.648438 
-14.648438 -473.632812 -14.648438 
-14.648438 -483.398438 -4.882812 
-4.882812 -473.632812 -14.648438 
-4.882812 -483.398438 -4.882812 
-14.648438 -473.632812 -4.882812 
-4.882812 -473.632812 -4.882812 
-161.132812 -317.382812 -131.835938 
-122.070312 -336.914062 -151.367188 
-122.070312 -336.914062 -141.601562 
-141.601562 -327.148438 -151.367188 
-151.367188 -317.382812 -151.367188 
-141.601562 -317.382812 -151.367188 
-151.367188 -336.914062 -131.835938 
-141.601562 -346.679688 -122.070312 
-151.367188 -336.914062 -122.070312 
-141.601562 -336.914062 -122.070312 
-131.835938 -327.148438 -151.367188 
-122.070312 -327.148438 -151.367188 
-131.835938 -317.382812 -151.367188 
-131.835938 -327.148438 -141.601562 
-122.070312 -317.382812 -151.367188 
-122.070312 -327.148438 -141.601562 
-131.835938 -317.382812 -141.601562 
-122.070312 -317.382812 -141.601562 
-151.367188 -327.148438 -131.835938 
-151.367188 -327.148438 -122.070312 
-141.601562 -327.148438 -122.070312 
-122.070312 -327.148438 -131.835938 
-131.835938 -317.382812 -131.835938 
-122.070312 -317.382812 -131.835938 
-131.835938 -317.382812 -122.070312 
-122.070312 -317.382812 -122.070312 
-112.304688 -336.914062 -151.367188 
-102.539062 -336.914062 -151.367188 
-112.304688 -336.914062 -141.601562 
-102.539062 -336.914062 -141.601562 
-92.773438 -336.914062 -151.367188 
-83.007812 -336.914062 -151.367188 
-92.773438 -336.914062 -141.601562 
-83.007812 -336.914062 -141.601562 
-112.304688 -327.148438 -151.367188 
-102.539062 -327.148438 -151.367188 
-112.304688 -317.382812 -151.367188 
-112.304688 -327.148438 -141.601562 
-102.539062 -317.382812 -151.367188 
-102.539062 -327.148438 -141.601562 
-112.304688 -317.382812 -141.601562 
-102.539062 -317.382812 -141.601562 
-112.304688 -336.914062 -131.835938 
-102.539062 -336.914062 -131.835938 
-102.539062 -336.914062 -122.070312 
-92.773438 -327.148438 -151.367188 
-83.007812 -327.148438 -151.367188 
-92.773438 -317.382812 -151.367188 
-92.773438 -327.148438 -141.601562 
-83.007812 -317.382812 -151.367188 
-83.007812 -327.148438 -141.601562 
-92.773438 -317.382812 -141.601562 
-83.007812 -317.382812 -141.601562 
-92.773438 -336.914062 -131.835938 
-83.007812 -336.914062 -131.835938 
-92.773438 -336.914062 -122.070312 
-83.007812 -336.914062 -122.070312 
-112.304688 -327.148438 -131.835938 
-102.539062 -327.148438 -131.835938 
-112.304688 -317.382812 -131.835938 
-112.304688 -327.148438 -122.070312 
-102.539062 -317.382812 -131.835938 
-102.539062 -327.148438 -122.070312 
-112.304688 -317.382812 -122.070312 
-92.773438 -327.148438 -131.835938 
-83.007812 -327.148438 -131.835938 
-92.773438 -317.382812 -131.835938 
-92.773438 -327.148438 -122.070312 
-83.007812 -317.382812 -131.835938 
-83.007812 -327.148438 -122.070312 
-92.773438 -317.382812 -122.070312 
-83.007812 -317.382812 -122.070312 
-141.601562 -336.914062 -112.304688 
-141.601562 -336.914062 -102.539062 
-131.835938 -336.914062 -112.304688 
-131.835938 -336.914062 -102.539062 
-122.070312 -336.914062 -102.539062 
-151.367188 -327.148438 -112.304688 
-141.601562 -327.148438 -112.304688 
-151.367188 -327.148438 -102.539062 
-141.601562 -327.148438 -102.539062 
-141.601562 -336.914062 -92.773438 
-141.601562 -336.914062 -83.007812 
-131.835938 -327.148438 -112.304688 
-131.835938 -327.148438 -102.539062 
-122.070312 -327.148438 -102.539062 
-131.835938 -336.914062 -92.773438 
-122.070312 -336.914062 -92.773438 
-131.835938 -336.914062 -83.007812 
-122.070312 -336.914062 -83.007812 
-151.367188 -327.148438 -92.773438 
-141.601562 -327.148438 -92.773438 
-83.007812 -346.679688 -112.304688 
-92.773438 -336.914062 -112.304688 
-83.007812 -336.914062 -112.304688 
-83.007812 -336.914062 -102.539062 
-102.539062 -327.148438 -112.304688 
-102.539062 -327.148438 -102.539062 
-112.304688 -336.914062 -92.773438 
-102.539062 -336.914062 -92.773438 
-112.304688 -336.914062 -83.007812 
-102.539062 -336.914062 -83.007812 
-92.773438 -327.148438 -112.304688 
-83.007812 -327.148438 -112.304688 
-92.773438 -327.148438 -102.539062 
-83.007812 -327.148438 -102.539062 
-83.007812 -317.382812 -102.539062 
-92.773438 -336.914062 -83.007812 
-83.007812 -336.914062 -83.007812 
-102.539062 -327.148438 -92.773438 
-92.773438 -327.148438 -92.773438 
-83.007812 -327.148438 -92.773438 
-92.773438 -327.148438 -83.007812 
-83.007812 -317.382812 -92.773438 
-83.007812 -327.148438 -83.007812 
-73.242188 -336.914062 -151.367188 
-63.476562 -336.914062 -151.367188 
-73.242188 -336.914062 -141.601562 
-63.476562 -336.914062 -141.601562 
-53.710938 -336.914062 -151.367188 
-43.945312 -336.914062 -151.367188 
-53.710938 -336.914062 -141.601562 
-43.945312 -336.914062 -141.601562 
-73.242188 -327.148438 -151.367188 
-63.476562 -327.148438 -151.367188 
-73.242188 -317.382812 -151.367188 
-73.242188 -327.148438 -141.601562 
-63.476562 -317.382812 -151.367188 
-63.476562 -327.148438 -141.601562 
-73.242188 -317.382812 -141.601562 
-63.476562 -317.382812 -141.601562 
-73.242188 -336.914062 -131.835938 
-63.476562 -336.914062 -131.835938 
-73.242188 -336.914062 -122.070312 
-63.476562 -336.914062 -122.070312 
-53.710938 -327.148438 -151.367188 
-43.945312 -327.148438 -151.367188 
-53.710938 -317.382812 -151.367188 
-53.710938 -327.148438 -141.601562 
-43.945312 -317.382812 -151.367188 
-43.945312 -327.148438 -141.601562 
-53.710938 -317.382812 -141.601562 
-43.945312 -317.382812 -141.601562 
-53.710938 -336.914062 -131.835938 
-43.945312 -336.914062 -131.835938 
-53.710938 -336.914062 -122.070312 
-43.945312 -336.914062 -122.070312 
-73.242188 -327.148438 -131.835938 
-63.476562 -327.148438 -131.835938 
-73.242188 -317.382812 -131.835938 
-73.242188 -327.148438 -122.070312 
-63.476562 -317.382812 -131.835938 
-63.476562 -327.148438 -122.070312 
-73.242188 -317.382812 -122.070312 
-63.476562 -317.382812 -122.070312 
-53.710938 -327.148438 -131.835938 
-43.945312 -327.148438 -131.835938 
-53.710938 -317.382812 -131.835938 
-53.710938 -327.148438 -122.070312 
-43.945312 -317.382812 -131.835938 
-43.945312 -327.148438 -122.070312 
-53.710938 -317.382812 -122.070312 
-43.945312 -317.382812 -122.070312 
-34.179688 -336.914062 -141.601562 
-34.179688 -327.148438 -151.367188 
-24.414062 -327.148438 -151.367188 
-34.179688 -317.382812 -151.367188 
-34.179688 -327.148438 -141.601562 
-24.414062 -317.382812 -151.367188 
-24.414062 -327.148438 -141.601562 
-34.179688 -317.382812 -141.601562 
-24.414062 -317.382812 -141.601562 
-34.179688 -336.914062 -131.835938 
-24.414062 -336.914062 -131.835938 
-34.179688 -336.914062 -122.070312 
-24.414062 -336.914062 -122.070312 
-14.648438 -327.148438 -151.367188 
-14.648438 -317.382812 -151.367188 
-14.648438 -327.148438 -141.601562 
-14.648438 -317.382812 -141.601562 
-4.882812 -317.382812 -141.601562 
-34.179688 -327.148438 -131.835938 
-24.414062 -327.148438 -131.835938 
-34.179688 -327.148438 -122.070312 
-24.414062 -317.382812 -131.835938 
-24.414062 -327.148438 -122.070312 
-34.179688 -317.382812 -122.070312 
-14.648438 -327.148438 -131.835938 
-14.648438 -317.382812 -131.835938 
-14.648438 -327.148438 -122.070312 
-4.882812 -317.382812 -131.835938 
-14.648438 -317.382812 -122.070312 
-4.882812 -317.382812 -122.070312 
-73.242188 -346.679688 -112.304688 
-63.476562 -346.679688 -112.304688 
-73.242188 -336.914062 -112.304688 
-63.476562 -336.914062 -112.304688 
-63.476562 -346.679688 -102.539062 
-73.242188 -336.914062 -102.539062 
-63.476562 -336.914062 -102.539062 
-53.710938 -336.914062 -112.304688 
-53.710938 -346.679688 -102.539062 
-43.945312 -336.914062 -112.304688 
-43.945312 -346.679688 -102.539062 
-53.710938 -336.914062 -102.539062 
-43.945312 -336.914062 -102.539062 
-73.242188 -327.148438 -112.304688 
-63.476562 -327.148438 -112.304688 
-73.242188 -317.382812 -112.304688 
-73.242188 -327.148438 -102.539062 
-63.476562 -317.382812 -112.304688 
-63.476562 -327.148438 -102.539062 
-73.242188 -317.382812 -102.539062 
-63.476562 -317.382812 -102.539062 
-73.242188 -336.914062 -92.773438 
-63.476562 -336.914062 -92.773438 
-73.242188 -336.914062 -83.007812 
-63.476562 -336.914062 -83.007812 
-53.710938 -327.148438 -112.304688 
-43.945312 -327.148438 -112.304688 
-53.710938 -317.382812 -112.304688 
-53.710938 -327.148438 -102.539062 
-43.945312 -317.382812 -112.304688 
-43.945312 -327.148438 -102.539062 
-53.710938 -317.382812 -102.539062 
-43.945312 -317.382812 -102.539062 
-53.710938 -336.914062 -92.773438 
-43.945312 -336.914062 -92.773438 
-53.710938 -336.914062 -83.007812 
-43.945312 -336.914062 -83.007812 
-73.242188 -327.148438 -92.773438 
-63.476562 -327.148438 -92.773438 
-73.242188 -317.382812 -92.773438 
-73.242188 -327.148438 -83.007812 
-63.476562 -317.382812 -92.773438 
-63.476562 -327.148438 -83.007812 
-53.710938 -327.148438 -92.773438 
-43.945312 -327.148438 -92.773438 
-53.710938 -317.382812 -92.773438 
-53.710938 -327.148438 -83.007812 
-43.945312 -317.382812 -92.773438 
-43.945312 -327.148438 -83.007812 
-53.710938 -317.382812 -83.007812 
-43.945312 -317.382812 -83.007812 
-34.179688 -336.914062 -112.304688 
-34.179688 -346.679688 -102.539062 
-24.414062 -336.914062 -112.304688 
-34.179688 -336.914062 -102.539062 
-24.414062 -336.914062 -102.539062 
-34.179688 -327.148438 -112.304688 
-24.414062 -327.148438 -112.304688 
-34.179688 -317.382812 -112.304688 
-34.179688 -327.148438 -102.539062 
-34.179688 -317.382812 -102.539062 
-24.414062 -317.382812 -102.539062 
-34.179688 -336.914062 -92.773438 
-24.414062 -336.914062 -92.773438 
-34.179688 -336.914062 -83.007812 
-24.414062 -336.914062 -83.007812 
-14.648438 -327.148438 -112.304688 
-14.648438 -327.148438 -102.539062 
-14.648438 -336.914062 -83.007812 
-34.179688 -327.148438 -92.773438 
-24.414062 -327.148438 -92.773438 
-34.179688 -317.382812 -92.773438 
-34.179688 -327.148438 -83.007812 
-24.414062 -317.382812 -92.773438 
-24.414062 -327.148438 -83.007812 
-24.414062 -317.382812 -83.007812 
-4.882812 -327.148438 -92.773438 
-4.882812 -327.148438 -83.007812 
-14.648438 -317.382812 -83.007812 
-4.882812 -317.382812 -83.007812 
-131.835938 -336.914062 -73.242188 
-122.070312 -336.914062 -73.242188 
-112.304688 -336.914062 -73.242188 
-102.539062 -336.914062 -73.242188 
-92.773438 -336.914062 -73.242188 
-83.007812 -336.914062 -73.242188 
-92.773438 -336.914062 -63.476562 
-83.007812 -336.914062 -63.476562 
-92.773438 -327.148438 -73.242188 
-83.007812 -327.148438 -73.242188 
-92.773438 -327.148438 -63.476562 
-83.007812 -327.148438 -63.476562 
-73.242188 -336.914062 -73.242188 
-63.476562 -336.914062 -73.242188 
-73.242188 -336.914062 -63.476562 
-63.476562 -336.914062 -63.476562 
-53.710938 -336.914062 -73.242188 
-43.945312 -336.914062 -73.242188 
-53.710938 -336.914062 -63.476562 
-43.945312 -336.914062 -63.476562 
-73.242188 -327.148438 -73.242188 
-63.476562 -327.148438 -73.242188 
-73.242188 -327.148438 -63.476562 
-63.476562 -327.148438 -63.476562 
-53.710938 -327.148438 -73.242188 
-43.945312 -327.148438 -73.242188 
-53.710938 -327.148438 -63.476562 
-43.945312 -327.148438 -63.476562 
-43.945312 -317.382812 -63.476562 
-43.945312 -336.914062 -53.710938 
-63.476562 -327.148438 -43.945312 
-53.710938 -327.148438 -53.710938 
-43.945312 -327.148438 -53.710938 
-53.710938 -317.382812 -53.710938 
-53.710938 -327.148438 -43.945312 
-43.945312 -317.382812 -53.710938 
-43.945312 -327.148438 -43.945312 
-53.710938 -317.382812 -43.945312 
-43.945312 -317.382812 -43.945312 
-34.179688 -336.914062 -73.242188 
-24.414062 -336.914062 -73.242188 
-34.179688 -336.914062 -63.476562 
-24.414062 -336.914062 -63.476562 
-14.648438 -336.914062 -73.242188 
-14.648438 -336.914062 -63.476562 
-34.179688 -327.148438 -73.242188 
-24.414062 -327.148438 -73.242188 
-34.179688 -317.382812 -73.242188 
-34.179688 -327.148438 -63.476562 
-24.414062 -317.382812 -73.242188 
-24.414062 -327.148438 -63.476562 
-34.179688 -317.382812 -63.476562 
-24.414062 -317.382812 -63.476562 
-34.179688 -336.914062 -53.710938 
-24.414062 -336.914062 -53.710938 
-14.648438 -327.148438 -73.242188 
-14.648438 -317.382812 -73.242188 
-14.648438 -327.148438 -63.476562 
-4.882812 -317.382812 -73.242188 
-4.882812 -327.148438 -63.476562 
-14.648438 -317.382812 -63.476562 
-4.882812 -317.382812 -63.476562 
-14.648438 -336.914062 -53.710938 
-14.648438 -336.914062 -43.945312 
-4.882812 -336.914062 -43.945312 
-34.179688 -327.148438 -53.710938 
-24.414062 -327.148438 -53.710938 
-34.179688 -317.382812 -53.710938 
-34.179688 -327.148438 -43.945312 
-24.414062 -317.382812 -53.710938 
-24.414062 -327.148438 -43.945312 
-34.179688 -317.382812 -43.945312 
-24.414062 -317.382812 -43.945312 
-14.648438 -327.148438 -53.710938 
-4.882812 -327.148438 -53.710938 
-14.648438 -317.382812 -53.710938 
-14.648438 -327.148438 -43.945312 
-4.882812 -317.382812 -53.710938 
-4.882812 -327.148438 -43.945312 
-14.648438 -317.382812 -43.945312 
-4.882812 -317.382812 -43.945312 
-63.476562 -327.148438 -34.179688 
-53.710938 -327.148438 -34.179688 
-43.945312 -317.382812 -14.648438 
-34.179688 -327.148438 -34.179688 
-24.414062 -327.148438 -34.179688 
-34.179688 -317.382812 -34.179688 
-24.414062 -317.382812 -34.179688 
-24.414062 -327.148438 -24.414062 
-24.414062 -317.382812 -24.414062 
-14.648438 -327.148438 -34.179688 
-4.882812 -327.148438 -34.179688 
-14.648438 -317.382812 -34.179688 
-14.648438 -327.148438 -24.414062 
-4.882812 -317.382812 -34.179688 
-4.882812 -327.148438 -24.414062 
-14.648438 -317.382812 -24.414062 
-4.882812 -317.382812 -24.414062 
-34.179688 -317.382812 -4.882812 
-14.648438 -317.382812 -14.648438 
-4.882812 -317.382812 -14.648438 
-4.882812 -317.382812 -4.882812 
-170.898438 -278.320312 -239.257812 
-161.132812 -278.320312 -239.257812 
-170.898438 -258.789062 -258.789062 
-161.132812 -258.789062 -258.789062 
-180.664062 -249.023438 -268.554688 
-180.664062 -239.257812 -268.554688 
-190.429688 -268.554688 -239.257812 
-180.664062 -258.789062 -249.023438 
-180.664062 -268.554688 -239.257812 
-170.898438 -249.023438 -268.554688 
-161.132812 -249.023438 -268.554688 
-170.898438 -239.257812 -268.554688 
-170.898438 -249.023438 -258.789062 
-161.132812 -249.023438 -258.789062 
-170.898438 -268.554688 -249.023438 
-161.132812 -268.554688 -249.023438 
-170.898438 -258.789062 -249.023438 
-170.898438 -268.554688 -239.257812 
-161.132812 -258.789062 -249.023438 
-161.132812 -268.554688 -239.257812 
-180.664062 -229.492188 -268.554688 
-161.132812 -297.851562 -219.726562 
-180.664062 -278.320312 -229.492188 
-180.664062 -297.851562 -209.960938 
-180.664062 -297.851562 -200.195312 
-161.132812 -288.085938 -229.492188 
-170.898438 -278.320312 -229.492188 
-161.132812 -278.320312 -229.492188 
-161.132812 -288.085938 -219.726562 
-161.132812 -307.617188 -209.960938 
-170.898438 -297.851562 -209.960938 
-170.898438 -307.617188 -200.195312 
-161.132812 -297.851562 -209.960938 
-161.132812 -307.617188 -200.195312 
-170.898438 -297.851562 -200.195312 
-161.132812 -297.851562 -200.195312 
-170.898438 -307.617188 -190.429688 
-161.132812 -307.617188 -190.429688 
-170.898438 -307.617188 -180.664062 
-161.132812 -307.617188 -180.664062 
-170.898438 -307.617188 -170.898438 
-161.132812 -307.617188 -170.898438 
-131.835938 -297.851562 -239.257812 
-122.070312 -297.851562 -239.257812 
-151.367188 -278.320312 -249.023438 
-141.601562 -278.320312 -249.023438 
-141.601562 -288.085938 -239.257812 
-151.367188 -278.320312 -239.257812 
-141.601562 -278.320312 -239.257812 
-131.835938 -288.085938 -249.023438 
-122.070312 -288.085938 -249.023438 
-131.835938 -278.320312 -249.023438 
-131.835938 -288.085938 -239.257812 
-122.070312 -288.085938 -239.257812 
-112.304688 -307.617188 -239.257812 
-112.304688 -297.851562 -239.257812 
-112.304688 -288.085938 -239.257812 
-112.304688 -278.320312 -239.257812 
-151.367188 -268.554688 -258.789062 
-141.601562 -268.554688 -258.789062 
-151.367188 -258.789062 -258.789062 
-151.367188 -268.554688 -249.023438 
-141.601562 -268.554688 -249.023438 
-151.367188 -258.789062 -249.023438 
-151.367188 -268.554688 -239.257812 
-141.601562 -258.789062 -249.023438 
-141.601562 -268.554688 -239.257812 
-151.367188 -258.789062 -239.257812 
-151.367188 -297.851562 -229.492188 
-141.601562 -297.851562 -229.492188 
-141.601562 -307.617188 -219.726562 
-151.367188 -297.851562 -219.726562 
-141.601562 -297.851562 -219.726562 
-131.835938 -307.617188 -229.492188 
-122.070312 -307.617188 -229.492188 
-131.835938 -297.851562 -229.492188 
-131.835938 -307.617188 -219.726562 
-122.070312 -297.851562 -229.492188 
-122.070312 -307.617188 -219.726562 
-131.835938 -297.851562 -219.726562 
-122.070312 -297.851562 -219.726562 
-151.367188 -288.085938 -229.492188 
-141.601562 -288.085938 -229.492188 
-151.367188 -278.320312 -229.492188 
-151.367188 -288.085938 -219.726562 
-141.601562 -278.320312 -229.492188 
-141.601562 -288.085938 -219.726562 
-141.601562 -278.320312 -219.726562 
-151.367188 -307.617188 -209.960938 
-141.601562 -307.617188 -209.960938 
-151.367188 -297.851562 -209.960938 
-151.367188 -307.617188 -200.195312 
-141.601562 -297.851562 -209.960938 
-141.601562 -307.617188 -200.195312 
-151.367188 -297.851562 -200.195312 
-141.601562 -297.851562 -200.195312 
-131.835938 -288.085938 -229.492188 
-122.070312 -288.085938 -229.492188 
-131.835938 -288.085938 -219.726562 
-122.070312 -288.085938 -219.726562 
-131.835938 -307.617188 -209.960938 
-122.070312 -307.617188 -209.960938 
-131.835938 -297.851562 -209.960938 
-131.835938 -307.617188 -200.195312 
-122.070312 -297.851562 -209.960938 
-122.070312 -307.617188 -200.195312 
-131.835938 -297.851562 -200.195312 
-122.070312 -297.851562 -200.195312 
-112.304688 -307.617188 -229.492188 
-102.539062 -307.617188 -229.492188 
-112.304688 -297.851562 -229.492188 
-112.304688 -307.617188 -219.726562 
-102.539062 -297.851562 -229.492188 
-102.539062 -307.617188 -219.726562 
-112.304688 -297.851562 -219.726562 
-102.539062 -297.851562 -219.726562 
