2.441406
163.574219 368.652344 354.003906 
163.574219 363.769531 358.886719 
158.691406 368.652344 358.886719 
163.574219 368.652344 358.886719 
158.691406 354.003906 363.769531 
163.574219 354.003906 363.769531 
158.691406 358.886719 363.769531 
163.574219 358.886719 363.769531 
158.691406 358.886719 368.652344 
168.457031 363.769531 358.886719 
168.457031 368.652344 358.886719 
168.457031 354.003906 363.769531 
168.457031 358.886719 363.769531 
173.339844 358.886719 368.652344 
158.691406 363.769531 363.769531 
163.574219 363.769531 363.769531 
158.691406 368.652344 363.769531 
158.691406 363.769531 368.652344 
163.574219 368.652344 363.769531 
163.574219 363.769531 368.652344 
158.691406 368.652344 368.652344 
163.574219 368.652344 368.652344 
168.457031 363.769531 363.769531 
168.457031 368.652344 363.769531 
168.457031 363.769531 368.652344 
173.339844 363.769531 368.652344 
168.457031 368.652344 368.652344 
158.691406 373.535156 354.003906 
163.574219 373.535156 354.003906 
158.691406 378.417969 354.003906 
158.691406 373.535156 358.886719 
163.574219 378.417969 354.003906 
163.574219 373.535156 358.886719 
158.691406 378.417969 358.886719 
163.574219 378.417969 358.886719 
168.457031 373.535156 358.886719 
168.457031 378.417969 358.886719 
158.691406 383.300781 354.003906 
163.574219 383.300781 354.003906 
158.691406 388.183594 354.003906 
158.691406 383.300781 358.886719 
163.574219 388.183594 354.003906 
163.574219 383.300781 358.886719 
158.691406 388.183594 358.886719 
163.574219 388.183594 358.886719 
158.691406 373.535156 363.769531 
163.574219 373.535156 363.769531 
158.691406 378.417969 363.769531 
158.691406 373.535156 368.652344 
163.574219 378.417969 363.769531 
163.574219 373.535156 368.652344 
158.691406 378.417969 368.652344 
163.574219 378.417969 368.652344 
168.457031 383.300781 358.886719 
168.457031 388.183594 358.886719 
168.457031 373.535156 363.769531 
168.457031 378.417969 363.769531 
168.457031 373.535156 368.652344 
168.457031 378.417969 368.652344 
158.691406 383.300781 363.769531 
163.574219 383.300781 363.769531 
158.691406 388.183594 363.769531 
158.691406 383.300781 368.652344 
163.574219 388.183594 363.769531 
163.574219 383.300781 368.652344 
158.691406 388.183594 368.652344 
163.574219 388.183594 368.652344 
168.457031 383.300781 363.769531 
168.457031 388.183594 363.769531 
168.457031 383.300781 368.652344 
168.457031 388.183594 368.652344 
173.339844 388.183594 368.652344 
158.691406 358.886719 373.535156 
158.691406 354.003906 378.417969 
163.574219 358.886719 373.535156 
163.574219 354.003906 378.417969 
158.691406 358.886719 378.417969 
163.574219 358.886719 378.417969 
168.457031 354.003906 373.535156 
173.339844 354.003906 373.535156 
168.457031 358.886719 373.535156 
168.457031 354.003906 378.417969 
173.339844 358.886719 373.535156 
173.339844 354.003906 378.417969 
168.457031 358.886719 378.417969 
173.339844 358.886719 378.417969 
158.691406 363.769531 373.535156 
163.574219 363.769531 373.535156 
158.691406 368.652344 373.535156 
158.691406 363.769531 378.417969 
163.574219 368.652344 373.535156 
163.574219 363.769531 378.417969 
158.691406 368.652344 378.417969 
163.574219 368.652344 378.417969 
158.691406 354.003906 383.300781 
163.574219 354.003906 383.300781 
158.691406 358.886719 383.300781 
163.574219 358.886719 383.300781 
163.574219 354.003906 388.183594 
168.457031 363.769531 373.535156 
173.339844 363.769531 373.535156 
168.457031 368.652344 373.535156 
168.457031 363.769531 378.417969 
173.339844 368.652344 373.535156 
173.339844 363.769531 378.417969 
168.457031 368.652344 378.417969 
168.457031 354.003906 383.300781 
173.339844 354.003906 383.300781 
168.457031 358.886719 383.300781 
168.457031 354.003906 388.183594 
173.339844 358.886719 383.300781 
173.339844 354.003906 388.183594 
168.457031 358.886719 388.183594 
163.574219 363.769531 383.300781 
168.457031 363.769531 383.300781 
178.222656 354.003906 383.300781 
158.691406 373.535156 373.535156 
163.574219 373.535156 373.535156 
158.691406 378.417969 373.535156 
163.574219 378.417969 373.535156 
168.457031 373.535156 373.535156 
173.339844 373.535156 373.535156 
168.457031 378.417969 373.535156 
168.457031 373.535156 378.417969 
173.339844 378.417969 373.535156 
168.457031 378.417969 378.417969 
158.691406 383.300781 373.535156 
163.574219 383.300781 373.535156 
158.691406 388.183594 373.535156 
163.574219 388.183594 373.535156 
163.574219 383.300781 378.417969 
163.574219 388.183594 378.417969 
168.457031 383.300781 373.535156 
173.339844 383.300781 373.535156 
168.457031 388.183594 373.535156 
168.457031 383.300781 378.417969 
173.339844 388.183594 373.535156 
168.457031 388.183594 378.417969 
163.574219 393.066406 349.121094 
158.691406 393.066406 354.003906 
163.574219 393.066406 354.003906 
158.691406 397.949219 354.003906 
158.691406 393.066406 358.886719 
163.574219 397.949219 354.003906 
163.574219 393.066406 358.886719 
158.691406 397.949219 358.886719 
163.574219 397.949219 358.886719 
168.457031 393.066406 358.886719 
168.457031 397.949219 358.886719 
158.691406 402.832031 354.003906 
163.574219 402.832031 354.003906 
158.691406 402.832031 358.886719 
163.574219 407.714844 354.003906 
163.574219 402.832031 358.886719 
158.691406 407.714844 358.886719 
163.574219 407.714844 358.886719 
158.691406 393.066406 363.769531 
163.574219 393.066406 363.769531 
158.691406 397.949219 363.769531 
158.691406 393.066406 368.652344 
163.574219 397.949219 363.769531 
163.574219 393.066406 368.652344 
158.691406 397.949219 368.652344 
163.574219 397.949219 368.652344 
168.457031 402.832031 358.886719 
168.457031 407.714844 358.886719 
168.457031 393.066406 363.769531 
168.457031 397.949219 363.769531 
168.457031 393.066406 368.652344 
173.339844 393.066406 368.652344 
168.457031 397.949219 368.652344 
173.339844 397.949219 368.652344 
158.691406 402.832031 363.769531 
163.574219 402.832031 363.769531 
158.691406 407.714844 363.769531 
158.691406 402.832031 368.652344 
163.574219 407.714844 363.769531 
163.574219 402.832031 368.652344 
158.691406 407.714844 368.652344 
163.574219 407.714844 368.652344 
168.457031 402.832031 363.769531 
168.457031 407.714844 363.769531 
168.457031 402.832031 368.652344 
168.457031 407.714844 368.652344 
163.574219 412.597656 354.003906 
158.691406 412.597656 358.886719 
163.574219 412.597656 358.886719 
163.574219 417.480469 358.886719 
168.457031 412.597656 358.886719 
168.457031 417.480469 358.886719 
163.574219 422.363281 358.886719 
163.574219 427.246094 358.886719 
158.691406 412.597656 363.769531 
163.574219 412.597656 363.769531 
158.691406 417.480469 363.769531 
158.691406 412.597656 368.652344 
163.574219 417.480469 363.769531 
163.574219 412.597656 368.652344 
158.691406 417.480469 368.652344 
163.574219 417.480469 368.652344 
168.457031 422.363281 358.886719 
168.457031 427.246094 358.886719 
168.457031 412.597656 363.769531 
168.457031 417.480469 363.769531 
168.457031 412.597656 368.652344 
168.457031 417.480469 368.652344 
173.339844 417.480469 368.652344 
158.691406 422.363281 363.769531 
163.574219 422.363281 363.769531 
158.691406 422.363281 368.652344 
163.574219 427.246094 363.769531 
163.574219 422.363281 368.652344 
163.574219 427.246094 368.652344 
168.457031 422.363281 363.769531 
168.457031 427.246094 363.769531 
168.457031 422.363281 368.652344 
173.339844 422.363281 368.652344 
168.457031 427.246094 368.652344 
173.339844 427.246094 368.652344 
158.691406 393.066406 373.535156 
163.574219 393.066406 373.535156 
158.691406 397.949219 373.535156 
163.574219 397.949219 373.535156 
163.574219 393.066406 378.417969 
163.574219 397.949219 378.417969 
168.457031 393.066406 373.535156 
173.339844 393.066406 373.535156 
168.457031 397.949219 373.535156 
168.457031 393.066406 378.417969 
173.339844 397.949219 373.535156 
173.339844 393.066406 378.417969 
168.457031 397.949219 378.417969 
173.339844 397.949219 378.417969 
158.691406 402.832031 373.535156 
163.574219 402.832031 373.535156 
158.691406 407.714844 373.535156 
158.691406 402.832031 378.417969 
163.574219 407.714844 373.535156 
163.574219 402.832031 378.417969 
158.691406 407.714844 378.417969 
163.574219 407.714844 378.417969 
168.457031 402.832031 373.535156 
173.339844 402.832031 373.535156 
168.457031 407.714844 373.535156 
168.457031 402.832031 378.417969 
173.339844 407.714844 373.535156 
173.339844 402.832031 378.417969 
168.457031 407.714844 378.417969 
173.339844 407.714844 378.417969 
158.691406 412.597656 373.535156 
163.574219 412.597656 373.535156 
158.691406 417.480469 373.535156 
158.691406 412.597656 378.417969 
163.574219 417.480469 373.535156 
163.574219 412.597656 378.417969 
158.691406 417.480469 378.417969 
163.574219 417.480469 378.417969 
168.457031 412.597656 373.535156 
173.339844 412.597656 373.535156 
168.457031 417.480469 373.535156 
168.457031 412.597656 378.417969 
173.339844 417.480469 373.535156 
173.339844 412.597656 378.417969 
168.457031 417.480469 378.417969 
173.339844 417.480469 378.417969 
158.691406 422.363281 373.535156 
163.574219 422.363281 373.535156 
158.691406 427.246094 373.535156 
158.691406 422.363281 378.417969 
163.574219 427.246094 373.535156 
163.574219 422.363281 378.417969 
158.691406 427.246094 378.417969 
163.574219 427.246094 378.417969 
168.457031 422.363281 373.535156 
173.339844 422.363281 373.535156 
168.457031 427.246094 373.535156 
168.457031 422.363281 378.417969 
173.339844 427.246094 373.535156 
173.339844 422.363281 378.417969 
168.457031 427.246094 378.417969 
173.339844 427.246094 378.417969 
168.457031 417.480469 383.300781 
163.574219 427.246094 383.300781 
168.457031 422.363281 383.300781 
168.457031 427.246094 383.300781 
173.339844 427.246094 383.300781 
163.574219 432.128906 358.886719 
168.457031 432.128906 358.886719 
168.457031 437.011719 358.886719 
163.574219 432.128906 363.769531 
163.574219 437.011719 363.769531 
163.574219 432.128906 368.652344 
163.574219 437.011719 368.652344 
168.457031 432.128906 363.769531 
168.457031 437.011719 363.769531 
168.457031 432.128906 368.652344 
173.339844 432.128906 368.652344 
168.457031 437.011719 368.652344 
163.574219 441.894531 363.769531 
163.574219 441.894531 368.652344 
163.574219 446.777344 368.652344 
168.457031 441.894531 363.769531 
168.457031 446.777344 363.769531 
168.457031 441.894531 368.652344 
173.339844 441.894531 368.652344 
168.457031 446.777344 368.652344 
173.339844 446.777344 368.652344 
163.574219 451.660156 368.652344 
158.691406 456.542969 368.652344 
163.574219 456.542969 368.652344 
168.457031 451.660156 363.769531 
168.457031 456.542969 363.769531 
168.457031 451.660156 368.652344 
173.339844 451.660156 368.652344 
168.457031 456.542969 368.652344 
173.339844 456.542969 368.652344 
158.691406 461.425781 368.652344 
163.574219 461.425781 368.652344 
168.457031 461.425781 363.769531 
168.457031 461.425781 368.652344 
173.339844 461.425781 368.652344 
168.457031 466.308594 368.652344 
173.339844 466.308594 368.652344 
158.691406 432.128906 373.535156 
163.574219 432.128906 373.535156 
158.691406 432.128906 378.417969 
163.574219 437.011719 373.535156 
163.574219 432.128906 378.417969 
158.691406 437.011719 378.417969 
163.574219 437.011719 378.417969 
168.457031 432.128906 373.535156 
173.339844 432.128906 373.535156 
168.457031 437.011719 373.535156 
168.457031 432.128906 378.417969 
173.339844 437.011719 373.535156 
173.339844 432.128906 378.417969 
168.457031 437.011719 378.417969 
173.339844 437.011719 378.417969 
163.574219 441.894531 373.535156 
163.574219 446.777344 373.535156 
163.574219 441.894531 378.417969 
163.574219 446.777344 378.417969 
163.574219 432.128906 383.300781 
163.574219 437.011719 383.300781 
168.457031 441.894531 373.535156 
173.339844 441.894531 373.535156 
168.457031 446.777344 373.535156 
168.457031 441.894531 378.417969 
173.339844 446.777344 373.535156 
173.339844 441.894531 378.417969 
168.457031 446.777344 378.417969 
173.339844 446.777344 378.417969 
168.457031 432.128906 383.300781 
173.339844 432.128906 383.300781 
168.457031 437.011719 383.300781 
173.339844 437.011719 383.300781 
163.574219 441.894531 383.300781 
163.574219 446.777344 383.300781 
168.457031 441.894531 383.300781 
173.339844 441.894531 383.300781 
168.457031 446.777344 383.300781 
173.339844 446.777344 383.300781 
178.222656 441.894531 378.417969 
178.222656 437.011719 383.300781 
178.222656 441.894531 383.300781 
178.222656 446.777344 383.300781 
163.574219 451.660156 373.535156 
158.691406 456.542969 373.535156 
163.574219 456.542969 373.535156 
163.574219 451.660156 378.417969 
158.691406 456.542969 378.417969 
163.574219 456.542969 378.417969 
168.457031 451.660156 373.535156 
173.339844 451.660156 373.535156 
168.457031 456.542969 373.535156 
168.457031 451.660156 378.417969 
173.339844 456.542969 373.535156 
173.339844 451.660156 378.417969 
168.457031 456.542969 378.417969 
173.339844 456.542969 378.417969 
158.691406 461.425781 373.535156 
163.574219 461.425781 373.535156 
158.691406 461.425781 378.417969 
163.574219 461.425781 378.417969 
163.574219 466.308594 378.417969 
163.574219 451.660156 383.300781 
158.691406 456.542969 383.300781 
163.574219 456.542969 383.300781 
163.574219 451.660156 388.183594 
158.691406 456.542969 388.183594 
163.574219 456.542969 388.183594 
168.457031 461.425781 373.535156 
173.339844 461.425781 373.535156 
168.457031 466.308594 373.535156 
168.457031 461.425781 378.417969 
173.339844 466.308594 373.535156 
173.339844 461.425781 378.417969 
168.457031 466.308594 378.417969 
173.339844 466.308594 378.417969 
168.457031 451.660156 383.300781 
173.339844 451.660156 383.300781 
168.457031 456.542969 383.300781 
168.457031 451.660156 388.183594 
173.339844 456.542969 383.300781 
173.339844 451.660156 388.183594 
168.457031 456.542969 388.183594 
173.339844 456.542969 388.183594 
158.691406 461.425781 383.300781 
163.574219 461.425781 383.300781 
163.574219 466.308594 383.300781 
163.574219 461.425781 388.183594 
168.457031 461.425781 383.300781 
173.339844 461.425781 383.300781 
168.457031 466.308594 383.300781 
168.457031 461.425781 388.183594 
173.339844 466.308594 383.300781 
173.339844 461.425781 388.183594 
168.457031 466.308594 388.183594 
173.339844 466.308594 388.183594 
178.222656 466.308594 378.417969 
178.222656 451.660156 383.300781 
178.222656 456.542969 383.300781 
178.222656 456.542969 388.183594 
178.222656 461.425781 383.300781 
178.222656 466.308594 383.300781 
178.222656 461.425781 388.183594 
178.222656 466.308594 388.183594 
168.457031 329.589844 393.066406 
168.457031 324.707031 397.949219 
173.339844 329.589844 393.066406 
173.339844 324.707031 397.949219 
168.457031 329.589844 397.949219 
173.339844 329.589844 397.949219 
168.457031 319.824219 402.832031 
168.457031 314.941406 407.714844 
173.339844 319.824219 402.832031 
173.339844 314.941406 407.714844 
168.457031 319.824219 407.714844 
173.339844 319.824219 407.714844 
163.574219 329.589844 402.832031 
163.574219 324.707031 407.714844 
168.457031 324.707031 402.832031 
173.339844 324.707031 402.832031 
168.457031 329.589844 402.832031 
168.457031 324.707031 407.714844 
173.339844 329.589844 402.832031 
173.339844 324.707031 407.714844 
168.457031 329.589844 407.714844 
173.339844 329.589844 407.714844 
178.222656 329.589844 393.066406 
178.222656 324.707031 397.949219 
178.222656 329.589844 397.949219 
183.105469 329.589844 397.949219 
178.222656 319.824219 402.832031 
178.222656 314.941406 407.714844 
178.222656 319.824219 407.714844 
183.105469 319.824219 407.714844 
187.988281 319.824219 407.714844 
178.222656 324.707031 402.832031 
183.105469 324.707031 402.832031 
178.222656 329.589844 402.832031 
178.222656 324.707031 407.714844 
183.105469 324.707031 407.714844 
178.222656 329.589844 407.714844 
163.574219 334.472656 393.066406 
163.574219 339.355469 393.066406 
163.574219 334.472656 397.949219 
163.574219 339.355469 397.949219 
168.457031 334.472656 393.066406 
173.339844 334.472656 393.066406 
168.457031 339.355469 393.066406 
168.457031 334.472656 397.949219 
173.339844 339.355469 393.066406 
173.339844 334.472656 397.949219 
168.457031 339.355469 397.949219 
173.339844 339.355469 397.949219 
163.574219 344.238281 393.066406 
163.574219 349.121094 393.066406 
163.574219 334.472656 402.832031 
168.457031 344.238281 393.066406 
173.339844 344.238281 393.066406 
168.457031 349.121094 393.066406 
168.457031 344.238281 397.949219 
173.339844 349.121094 393.066406 
168.457031 334.472656 402.832031 
173.339844 334.472656 402.832031 
163.574219 319.824219 412.597656 
163.574219 314.941406 417.480469 
168.457031 314.941406 412.597656 
173.339844 314.941406 412.597656 
168.457031 319.824219 412.597656 
168.457031 314.941406 417.480469 
173.339844 319.824219 412.597656 
173.339844 314.941406 417.480469 
168.457031 319.824219 417.480469 
173.339844 319.824219 417.480469 
163.574219 324.707031 412.597656 
163.574219 314.941406 422.363281 
168.457031 324.707031 412.597656 
173.339844 324.707031 412.597656 
168.457031 314.941406 422.363281 
173.339844 314.941406 422.363281 
178.222656 334.472656 393.066406 
178.222656 339.355469 393.066406 
178.222656 334.472656 397.949219 
178.222656 344.238281 393.066406 
178.222656 334.472656 402.832031 
178.222656 314.941406 412.597656 
183.105469 314.941406 412.597656 
178.222656 319.824219 412.597656 
178.222656 314.941406 417.480469 
183.105469 319.824219 412.597656 
183.105469 314.941406 417.480469 
178.222656 319.824219 417.480469 
183.105469 319.824219 417.480469 
187.988281 314.941406 412.597656 
178.222656 324.707031 412.597656 
178.222656 314.941406 422.363281 
158.691406 451.660156 393.066406 
158.691406 456.542969 393.066406 
163.574219 456.542969 393.066406 
158.691406 456.542969 397.949219 
163.574219 456.542969 397.949219 
168.457031 456.542969 393.066406 
173.339844 456.542969 393.066406 
168.457031 456.542969 397.949219 
173.339844 456.542969 397.949219 
158.691406 456.542969 402.832031 
178.222656 456.542969 393.066406 
178.222656 466.308594 393.066406 
75.683594 505.371094 451.660156 
75.683594 510.253906 446.777344 
75.683594 510.253906 451.660156 
95.214844 480.957031 427.246094 
104.980469 471.191406 417.480469 
104.980469 476.074219 417.480469 
109.863281 471.191406 412.597656 
109.863281 471.191406 417.480469 
100.097656 471.191406 422.363281 
104.980469 471.191406 422.363281 
100.097656 476.074219 422.363281 
100.097656 471.191406 427.246094 
104.980469 476.074219 422.363281 
104.980469 471.191406 427.246094 
100.097656 476.074219 427.246094 
104.980469 476.074219 427.246094 
109.863281 471.191406 422.363281 
100.097656 480.957031 427.246094 
95.214844 476.074219 432.128906 
95.214844 476.074219 437.011719 
95.214844 480.957031 432.128906 
95.214844 485.839844 432.128906 
95.214844 480.957031 437.011719 
95.214844 485.839844 437.011719 
95.214844 480.957031 441.894531 
90.332031 485.839844 441.894531 
95.214844 485.839844 441.894531 
95.214844 480.957031 446.777344 
90.332031 485.839844 446.777344 
95.214844 485.839844 446.777344 
100.097656 471.191406 432.128906 
100.097656 476.074219 432.128906 
104.980469 476.074219 432.128906 
100.097656 476.074219 437.011719 
100.097656 480.957031 432.128906 
100.097656 480.957031 437.011719 
100.097656 480.957031 441.894531 
90.332031 490.722656 437.011719 
85.449219 495.605469 441.894531 
85.449219 495.605469 446.777344 
90.332031 490.722656 441.894531 
90.332031 490.722656 446.777344 
80.566406 500.488281 446.777344 
90.332031 485.839844 451.660156 
95.214844 485.839844 451.660156 
85.449219 495.605469 451.660156 
90.332031 490.722656 451.660156 
90.332031 490.722656 456.542969 
80.566406 500.488281 451.660156 
85.449219 500.488281 451.660156 
80.566406 505.371094 451.660156 
85.449219 500.488281 456.542969 
80.566406 505.371094 456.542969 
80.566406 510.253906 456.542969 
80.566406 510.253906 461.425781 
80.566406 515.136719 461.425781 
168.457031 471.191406 368.652344 
173.339844 471.191406 368.652344 
168.457031 476.074219 368.652344 
173.339844 476.074219 368.652344 
168.457031 480.957031 368.652344 
173.339844 480.957031 368.652344 
173.339844 485.839844 368.652344 
173.339844 490.722656 368.652344 
173.339844 495.605469 368.652344 
168.457031 471.191406 373.535156 
173.339844 471.191406 373.535156 
168.457031 476.074219 373.535156 
168.457031 471.191406 378.417969 
173.339844 476.074219 373.535156 
173.339844 471.191406 378.417969 
168.457031 476.074219 378.417969 
173.339844 476.074219 378.417969 
163.574219 471.191406 383.300781 
168.457031 480.957031 373.535156 
173.339844 480.957031 373.535156 
168.457031 485.839844 373.535156 
168.457031 480.957031 378.417969 
173.339844 485.839844 373.535156 
173.339844 480.957031 378.417969 
168.457031 485.839844 378.417969 
173.339844 485.839844 378.417969 
168.457031 471.191406 383.300781 
173.339844 471.191406 383.300781 
168.457031 476.074219 383.300781 
168.457031 471.191406 388.183594 
173.339844 476.074219 383.300781 
173.339844 471.191406 388.183594 
168.457031 476.074219 388.183594 
173.339844 476.074219 388.183594 
168.457031 480.957031 383.300781 
173.339844 480.957031 383.300781 
168.457031 485.839844 383.300781 
168.457031 480.957031 388.183594 
173.339844 485.839844 383.300781 
173.339844 480.957031 388.183594 
173.339844 485.839844 388.183594 
178.222656 476.074219 378.417969 
178.222656 485.839844 378.417969 
178.222656 471.191406 383.300781 
178.222656 476.074219 383.300781 
178.222656 471.191406 388.183594 
178.222656 476.074219 388.183594 
178.222656 480.957031 383.300781 
178.222656 485.839844 383.300781 
178.222656 480.957031 388.183594 
178.222656 485.839844 388.183594 
168.457031 490.722656 373.535156 
173.339844 490.722656 373.535156 
168.457031 490.722656 378.417969 
173.339844 495.605469 373.535156 
173.339844 490.722656 378.417969 
168.457031 495.605469 378.417969 
173.339844 495.605469 378.417969 
173.339844 500.488281 373.535156 
173.339844 505.371094 373.535156 
173.339844 500.488281 378.417969 
173.339844 505.371094 378.417969 
168.457031 490.722656 383.300781 
173.339844 490.722656 383.300781 
168.457031 495.605469 383.300781 
168.457031 490.722656 388.183594 
173.339844 495.605469 383.300781 
173.339844 490.722656 388.183594 
168.457031 495.605469 388.183594 
173.339844 495.605469 388.183594 
173.339844 500.488281 383.300781 
173.339844 505.371094 383.300781 
173.339844 500.488281 388.183594 
168.457031 505.371094 388.183594 
173.339844 505.371094 388.183594 
178.222656 490.722656 383.300781 
178.222656 495.605469 383.300781 
178.222656 490.722656 388.183594 
178.222656 495.605469 388.183594 
178.222656 500.488281 383.300781 
178.222656 505.371094 383.300781 
178.222656 500.488281 388.183594 
178.222656 505.371094 388.183594 
173.339844 510.253906 378.417969 
173.339844 510.253906 383.300781 
173.339844 515.136719 383.300781 
173.339844 510.253906 388.183594 
173.339844 515.136719 388.183594 
173.339844 520.019531 383.300781 
173.339844 524.902344 383.300781 
173.339844 520.019531 388.183594 
173.339844 524.902344 388.183594 
178.222656 510.253906 383.300781 
178.222656 515.136719 383.300781 
178.222656 510.253906 388.183594 
178.222656 515.136719 388.183594 
178.222656 520.019531 383.300781 
178.222656 524.902344 383.300781 
178.222656 520.019531 388.183594 
178.222656 524.902344 388.183594 
173.339844 529.785156 388.183594 
178.222656 529.785156 388.183594 
173.339844 476.074219 393.066406 
173.339844 480.957031 393.066406 
173.339844 485.839844 393.066406 
178.222656 471.191406 393.066406 
178.222656 476.074219 393.066406 
183.105469 476.074219 393.066406 
178.222656 480.957031 393.066406 
183.105469 480.957031 393.066406 
178.222656 485.839844 393.066406 
183.105469 485.839844 393.066406 
173.339844 490.722656 393.066406 
173.339844 495.605469 393.066406 
173.339844 500.488281 393.066406 
168.457031 505.371094 393.066406 
173.339844 505.371094 393.066406 
173.339844 505.371094 397.949219 
178.222656 490.722656 393.066406 
178.222656 495.605469 393.066406 
183.105469 495.605469 393.066406 
178.222656 495.605469 397.949219 
178.222656 500.488281 393.066406 
183.105469 500.488281 393.066406 
178.222656 505.371094 393.066406 
178.222656 500.488281 397.949219 
183.105469 500.488281 397.949219 
178.222656 505.371094 397.949219 
183.105469 505.371094 397.949219 
168.457031 510.253906 393.066406 
173.339844 510.253906 393.066406 
173.339844 515.136719 393.066406 
173.339844 510.253906 397.949219 
173.339844 520.019531 393.066406 
173.339844 524.902344 393.066406 
178.222656 510.253906 393.066406 
183.105469 510.253906 393.066406 
178.222656 515.136719 393.066406 
178.222656 510.253906 397.949219 
183.105469 510.253906 397.949219 
178.222656 515.136719 397.949219 
183.105469 515.136719 397.949219 
178.222656 520.019531 393.066406 
178.222656 524.902344 393.066406 
178.222656 520.019531 397.949219 
183.105469 520.019531 397.949219 
178.222656 524.902344 397.949219 
183.105469 524.902344 397.949219 
183.105469 515.136719 402.832031 
178.222656 520.019531 402.832031 
183.105469 520.019531 402.832031 
183.105469 524.902344 402.832031 
173.339844 529.785156 393.066406 
178.222656 529.785156 393.066406 
178.222656 529.785156 397.949219 
163.574219 505.371094 451.660156 
158.691406 505.371094 456.542969 
163.574219 505.371094 456.542969 
168.457031 505.371094 456.542969 
158.691406 505.371094 461.425781 
163.574219 505.371094 461.425781 
163.574219 505.371094 466.308594 
168.457031 505.371094 461.425781 
109.863281 7.324219 627.441406 
114.746094 7.324219 627.441406 
109.863281 7.324219 632.324219 
114.746094 7.324219 632.324219 
100.097656 12.207031 627.441406 
104.980469 12.207031 627.441406 
100.097656 17.089844 627.441406 
104.980469 12.207031 632.324219 
109.863281 12.207031 627.441406 
114.746094 12.207031 627.441406 
109.863281 17.089844 627.441406 
109.863281 12.207031 632.324219 
114.746094 17.089844 627.441406 
114.746094 12.207031 632.324219 
109.863281 17.089844 632.324219 
114.746094 17.089844 632.324219 
114.746094 7.324219 637.207031 
109.863281 12.207031 637.207031 
114.746094 12.207031 637.207031 
114.746094 17.089844 637.207031 
114.746094 17.089844 642.089844 
114.746094 21.972656 637.207031 
114.746094 21.972656 642.089844 
114.746094 26.855469 642.089844 
104.980469 36.621094 642.089844 
109.863281 31.738281 637.207031 
109.863281 31.738281 642.089844 
109.863281 36.621094 642.089844 
114.746094 36.621094 642.089844 
104.980469 36.621094 646.972656 
114.746094 31.738281 646.972656 
109.863281 36.621094 646.972656 
114.746094 31.738281 651.855469 
109.863281 36.621094 651.855469 
114.746094 36.621094 651.855469 
114.746094 36.621094 656.738281 
119.628906 2.441406 627.441406 
124.511719 2.441406 627.441406 
119.628906 7.324219 627.441406 
119.628906 2.441406 632.324219 
124.511719 7.324219 627.441406 
124.511719 2.441406 632.324219 
119.628906 7.324219 632.324219 
124.511719 7.324219 632.324219 
129.394531 2.441406 627.441406 
134.277344 2.441406 627.441406 
129.394531 7.324219 627.441406 
129.394531 2.441406 632.324219 
134.277344 7.324219 627.441406 
134.277344 2.441406 632.324219 
129.394531 7.324219 632.324219 
134.277344 7.324219 632.324219 
119.628906 12.207031 627.441406 
124.511719 12.207031 627.441406 
119.628906 17.089844 627.441406 
119.628906 12.207031 632.324219 
124.511719 17.089844 627.441406 
124.511719 12.207031 632.324219 
119.628906 17.089844 632.324219 
124.511719 17.089844 632.324219 
124.511719 2.441406 637.207031 
119.628906 7.324219 637.207031 
124.511719 7.324219 637.207031 
119.628906 7.324219 642.089844 
124.511719 7.324219 642.089844 
129.394531 12.207031 627.441406 
134.277344 12.207031 627.441406 
129.394531 17.089844 627.441406 
129.394531 12.207031 632.324219 
134.277344 17.089844 627.441406 
134.277344 12.207031 632.324219 
129.394531 17.089844 632.324219 
134.277344 17.089844 632.324219 
129.394531 2.441406 637.207031 
134.277344 2.441406 637.207031 
129.394531 7.324219 637.207031 
129.394531 2.441406 642.089844 
134.277344 7.324219 637.207031 
129.394531 7.324219 642.089844 
134.277344 7.324219 642.089844 
119.628906 12.207031 637.207031 
124.511719 12.207031 637.207031 
119.628906 17.089844 637.207031 
119.628906 12.207031 642.089844 
124.511719 17.089844 637.207031 
124.511719 12.207031 642.089844 
119.628906 17.089844 642.089844 
124.511719 17.089844 642.089844 
129.394531 12.207031 637.207031 
134.277344 12.207031 637.207031 
129.394531 17.089844 637.207031 
129.394531 12.207031 642.089844 
134.277344 17.089844 637.207031 
134.277344 12.207031 642.089844 
129.394531 17.089844 642.089844 
134.277344 17.089844 642.089844 
139.160156 2.441406 627.441406 
144.042969 2.441406 627.441406 
139.160156 7.324219 627.441406 
139.160156 2.441406 632.324219 
144.042969 7.324219 627.441406 
139.160156 7.324219 632.324219 
144.042969 7.324219 632.324219 
148.925781 7.324219 627.441406 
153.808594 7.324219 627.441406 
148.925781 7.324219 632.324219 
153.808594 7.324219 632.324219 
139.160156 12.207031 627.441406 
144.042969 12.207031 627.441406 
139.160156 17.089844 627.441406 
139.160156 12.207031 632.324219 
144.042969 17.089844 627.441406 
144.042969 12.207031 632.324219 
139.160156 17.089844 632.324219 
144.042969 17.089844 632.324219 
139.160156 7.324219 637.207031 
144.042969 7.324219 637.207031 
139.160156 7.324219 642.089844 
144.042969 7.324219 642.089844 
148.925781 12.207031 627.441406 
153.808594 12.207031 627.441406 
148.925781 17.089844 627.441406 
148.925781 12.207031 632.324219 
153.808594 12.207031 632.324219 
148.925781 17.089844 632.324219 
153.808594 17.089844 632.324219 
148.925781 7.324219 637.207031 
153.808594 7.324219 637.207031 
148.925781 7.324219 642.089844 
153.808594 7.324219 642.089844 
139.160156 12.207031 637.207031 
144.042969 12.207031 637.207031 
139.160156 17.089844 637.207031 
139.160156 12.207031 642.089844 
144.042969 17.089844 637.207031 
144.042969 12.207031 642.089844 
139.160156 17.089844 642.089844 
144.042969 17.089844 642.089844 
148.925781 12.207031 637.207031 
153.808594 12.207031 637.207031 
148.925781 17.089844 637.207031 
148.925781 12.207031 642.089844 
153.808594 17.089844 637.207031 
153.808594 12.207031 642.089844 
148.925781 17.089844 642.089844 
153.808594 17.089844 642.089844 
119.628906 21.972656 632.324219 
124.511719 21.972656 632.324219 
119.628906 21.972656 637.207031 
124.511719 21.972656 637.207031 
119.628906 26.855469 637.207031 
119.628906 21.972656 642.089844 
124.511719 21.972656 642.089844 
119.628906 26.855469 642.089844 
129.394531 21.972656 637.207031 
134.277344 21.972656 637.207031 
129.394531 26.855469 637.207031 
129.394531 21.972656 642.089844 
129.394531 26.855469 642.089844 
119.628906 31.738281 637.207031 
119.628906 31.738281 642.089844 
124.511719 7.324219 646.972656 
129.394531 7.324219 646.972656 
134.277344 7.324219 646.972656 
129.394531 7.324219 651.855469 
134.277344 7.324219 651.855469 
124.511719 12.207031 646.972656 
124.511719 17.089844 646.972656 
129.394531 12.207031 646.972656 
134.277344 12.207031 646.972656 
129.394531 17.089844 646.972656 
129.394531 12.207031 651.855469 
134.277344 17.089844 646.972656 
134.277344 12.207031 651.855469 
129.394531 17.089844 651.855469 
134.277344 17.089844 651.855469 
134.277344 12.207031 656.738281 
134.277344 17.089844 656.738281 
139.160156 21.972656 642.089844 
139.160156 26.855469 642.089844 
139.160156 7.324219 646.972656 
144.042969 7.324219 646.972656 
139.160156 7.324219 651.855469 
144.042969 7.324219 651.855469 
148.925781 7.324219 646.972656 
153.808594 7.324219 646.972656 
139.160156 12.207031 646.972656 
144.042969 12.207031 646.972656 
139.160156 17.089844 646.972656 
139.160156 12.207031 651.855469 
144.042969 17.089844 646.972656 
144.042969 12.207031 651.855469 
139.160156 17.089844 651.855469 
144.042969 17.089844 651.855469 
139.160156 7.324219 656.738281 
144.042969 7.324219 656.738281 
148.925781 12.207031 646.972656 
153.808594 12.207031 646.972656 
148.925781 17.089844 646.972656 
148.925781 12.207031 651.855469 
153.808594 17.089844 646.972656 
153.808594 12.207031 651.855469 
148.925781 17.089844 651.855469 
153.808594 17.089844 651.855469 
139.160156 12.207031 656.738281 
144.042969 12.207031 656.738281 
139.160156 17.089844 656.738281 
144.042969 17.089844 656.738281 
144.042969 12.207031 661.621094 
139.160156 17.089844 661.621094 
144.042969 17.089844 661.621094 
148.925781 12.207031 656.738281 
153.808594 12.207031 656.738281 
148.925781 17.089844 656.738281 
148.925781 12.207031 661.621094 
153.808594 17.089844 656.738281 
153.808594 12.207031 661.621094 
148.925781 17.089844 661.621094 
153.808594 17.089844 661.621094 
119.628906 21.972656 646.972656 
124.511719 21.972656 646.972656 
119.628906 26.855469 646.972656 
124.511719 26.855469 646.972656 
124.511719 21.972656 651.855469 
119.628906 26.855469 651.855469 
124.511719 26.855469 651.855469 
134.277344 21.972656 646.972656 
119.628906 31.738281 646.972656 
124.511719 31.738281 646.972656 
119.628906 36.621094 646.972656 
119.628906 31.738281 651.855469 
124.511719 31.738281 651.855469 
119.628906 36.621094 651.855469 
124.511719 26.855469 656.738281 
119.628906 31.738281 656.738281 
124.511719 31.738281 656.738281 
119.628906 36.621094 656.738281 
124.511719 31.738281 661.621094 
119.628906 36.621094 661.621094 
124.511719 36.621094 661.621094 
139.160156 21.972656 646.972656 
144.042969 21.972656 646.972656 
139.160156 26.855469 646.972656 
139.160156 21.972656 651.855469 
144.042969 26.855469 646.972656 
144.042969 21.972656 651.855469 
139.160156 26.855469 651.855469 
144.042969 26.855469 651.855469 
148.925781 21.972656 646.972656 
148.925781 21.972656 651.855469 
148.925781 26.855469 651.855469 
144.042969 31.738281 646.972656 
139.160156 31.738281 651.855469 
144.042969 36.621094 646.972656 
144.042969 31.738281 651.855469 
144.042969 36.621094 651.855469 
139.160156 21.972656 656.738281 
144.042969 21.972656 656.738281 
139.160156 26.855469 656.738281 
139.160156 21.972656 661.621094 
144.042969 26.855469 656.738281 
144.042969 21.972656 661.621094 
139.160156 26.855469 661.621094 
144.042969 26.855469 661.621094 
148.925781 21.972656 656.738281 
148.925781 26.855469 656.738281 
148.925781 21.972656 661.621094 
148.925781 26.855469 661.621094 
139.160156 31.738281 656.738281 
144.042969 31.738281 656.738281 
144.042969 36.621094 656.738281 
144.042969 31.738281 661.621094 
144.042969 36.621094 661.621094 
148.925781 31.738281 656.738281 
148.925781 31.738281 661.621094 
148.925781 36.621094 661.621094 
114.746094 41.503906 642.089844 
109.863281 41.503906 646.972656 
114.746094 41.503906 646.972656 
109.863281 41.503906 651.855469 
114.746094 41.503906 651.855469 
109.863281 46.386719 651.855469 
114.746094 46.386719 651.855469 
114.746094 41.503906 656.738281 
109.863281 46.386719 656.738281 
114.746094 46.386719 656.738281 
114.746094 41.503906 661.621094 
114.746094 46.386719 661.621094 
114.746094 51.269531 656.738281 
109.863281 51.269531 661.621094 
114.746094 51.269531 661.621094 
119.628906 41.503906 651.855469 
119.628906 41.503906 656.738281 
119.628906 46.386719 656.738281 
119.628906 41.503906 661.621094 
119.628906 46.386719 661.621094 
119.628906 51.269531 656.738281 
144.042969 17.089844 666.503906 
148.925781 12.207031 666.503906 
148.925781 17.089844 666.503906 
153.808594 17.089844 666.503906 
139.160156 21.972656 666.503906 
144.042969 21.972656 666.503906 
144.042969 26.855469 666.503906 
144.042969 21.972656 671.386719 
144.042969 26.855469 671.386719 
148.925781 21.972656 666.503906 
153.808594 21.972656 666.503906 
148.925781 26.855469 666.503906 
148.925781 21.972656 671.386719 
153.808594 26.855469 666.503906 
148.925781 26.855469 671.386719 
153.808594 26.855469 671.386719 
144.042969 31.738281 666.503906 
148.925781 31.738281 666.503906 
148.925781 36.621094 666.503906 
148.925781 31.738281 671.386719 
148.925781 36.621094 671.386719 
148.925781 26.855469 676.269531 
148.925781 31.738281 676.269531 
153.808594 31.738281 676.269531 
148.925781 36.621094 676.269531 
148.925781 36.621094 681.152344 
153.808594 36.621094 681.152344 
114.746094 41.503906 666.503906 
114.746094 46.386719 666.503906 
114.746094 46.386719 671.386719 
109.863281 51.269531 666.503906 
114.746094 51.269531 666.503906 
109.863281 51.269531 671.386719 
104.980469 56.152344 676.269531 
119.628906 41.503906 666.503906 
119.628906 46.386719 666.503906 
119.628906 41.503906 671.386719 
148.925781 41.503906 671.386719 
148.925781 41.503906 676.269531 
148.925781 41.503906 681.152344 
148.925781 41.503906 686.035156 
158.691406 7.324219 627.441406 
163.574219 7.324219 627.441406 
158.691406 7.324219 632.324219 
163.574219 7.324219 632.324219 
158.691406 12.207031 627.441406 
158.691406 12.207031 632.324219 
158.691406 7.324219 637.207031 
163.574219 7.324219 637.207031 
158.691406 7.324219 642.089844 
163.574219 7.324219 642.089844 
168.457031 17.089844 627.441406 
173.339844 17.089844 627.441406 
173.339844 17.089844 632.324219 
158.691406 12.207031 637.207031 
163.574219 12.207031 637.207031 
158.691406 12.207031 642.089844 
163.574219 12.207031 642.089844 
158.691406 17.089844 642.089844 
173.339844 17.089844 637.207031 
178.222656 12.207031 627.441406 
178.222656 17.089844 627.441406 
183.105469 17.089844 627.441406 
178.222656 17.089844 632.324219 
183.105469 17.089844 632.324219 
187.988281 17.089844 627.441406 
192.871094 17.089844 627.441406 
187.988281 17.089844 632.324219 
178.222656 17.089844 637.207031 
183.105469 17.089844 637.207031 
178.222656 17.089844 642.089844 
158.691406 12.207031 646.972656 
163.574219 12.207031 646.972656 
158.691406 17.089844 646.972656 
158.691406 12.207031 651.855469 
163.574219 12.207031 651.855469 
158.691406 17.089844 651.855469 
168.457031 12.207031 646.972656 
168.457031 12.207031 651.855469 
173.339844 12.207031 651.855469 
158.691406 12.207031 656.738281 
163.574219 12.207031 656.738281 
158.691406 17.089844 656.738281 
158.691406 12.207031 661.621094 
158.691406 17.089844 661.621094 
163.574219 17.089844 661.621094 
168.457031 12.207031 656.738281 
222.167969 202.636719 627.441406 
227.050781 202.636719 627.441406 
222.167969 207.519531 627.441406 
222.167969 212.402344 627.441406 
227.050781 207.519531 627.441406 
231.933594 207.519531 627.441406 
227.050781 212.402344 627.441406 
231.933594 212.402344 627.441406 
222.167969 217.285156 627.441406 
222.167969 222.167969 627.441406 
227.050781 217.285156 627.441406 
231.933594 217.285156 627.441406 
227.050781 222.167969 627.441406 
227.050781 217.285156 632.324219 
227.050781 222.167969 632.324219 
231.933594 222.167969 632.324219 
217.285156 227.050781 627.441406 
222.167969 227.050781 627.441406 
217.285156 231.933594 627.441406 
217.285156 227.050781 632.324219 
222.167969 231.933594 627.441406 
222.167969 227.050781 632.324219 
217.285156 231.933594 632.324219 
222.167969 231.933594 632.324219 
227.050781 227.050781 627.441406 
227.050781 231.933594 627.441406 
227.050781 227.050781 632.324219 
231.933594 231.933594 627.441406 
227.050781 231.933594 632.324219 
231.933594 231.933594 632.324219 
217.285156 227.050781 637.207031 
222.167969 227.050781 637.207031 
217.285156 231.933594 637.207031 
222.167969 231.933594 637.207031 
227.050781 231.933594 637.207031 
236.816406 227.050781 627.441406 
236.816406 231.933594 627.441406 
236.816406 231.933594 632.324219 
212.402344 241.699219 627.441406 
212.402344 241.699219 632.324219 
212.402344 246.582031 627.441406 
212.402344 246.582031 632.324219 
212.402344 251.464844 632.324219 
212.402344 241.699219 637.207031 
212.402344 246.582031 637.207031 
217.285156 236.816406 627.441406 
222.167969 236.816406 627.441406 
217.285156 241.699219 627.441406 
217.285156 236.816406 632.324219 
222.167969 241.699219 627.441406 
222.167969 236.816406 632.324219 
217.285156 241.699219 632.324219 
222.167969 241.699219 632.324219 
227.050781 236.816406 627.441406 
231.933594 236.816406 627.441406 
227.050781 241.699219 627.441406 
227.050781 236.816406 632.324219 
231.933594 241.699219 627.441406 
231.933594 236.816406 632.324219 
227.050781 241.699219 632.324219 
231.933594 241.699219 632.324219 
217.285156 246.582031 627.441406 
222.167969 246.582031 627.441406 
217.285156 251.464844 627.441406 
217.285156 246.582031 632.324219 
222.167969 251.464844 627.441406 
222.167969 246.582031 632.324219 
217.285156 251.464844 632.324219 
222.167969 251.464844 632.324219 
217.285156 236.816406 637.207031 
222.167969 236.816406 637.207031 
217.285156 241.699219 637.207031 
222.167969 241.699219 637.207031 
217.285156 241.699219 642.089844 
222.167969 241.699219 642.089844 
227.050781 246.582031 627.441406 
231.933594 246.582031 627.441406 
227.050781 251.464844 627.441406 
227.050781 246.582031 632.324219 
231.933594 251.464844 627.441406 
231.933594 246.582031 632.324219 
227.050781 251.464844 632.324219 
231.933594 251.464844 632.324219 
227.050781 236.816406 637.207031 
227.050781 241.699219 637.207031 
231.933594 241.699219 637.207031 
217.285156 246.582031 637.207031 
222.167969 246.582031 637.207031 
217.285156 251.464844 637.207031 
217.285156 246.582031 642.089844 
222.167969 251.464844 637.207031 
222.167969 246.582031 642.089844 
217.285156 251.464844 642.089844 
222.167969 251.464844 642.089844 
227.050781 246.582031 637.207031 
231.933594 246.582031 637.207031 
227.050781 251.464844 637.207031 
227.050781 246.582031 642.089844 
231.933594 251.464844 637.207031 
227.050781 251.464844 642.089844 
212.402344 256.347656 627.441406 
212.402344 261.230469 627.441406 
212.402344 256.347656 632.324219 
217.285156 256.347656 627.441406 
222.167969 256.347656 627.441406 
217.285156 261.230469 627.441406 
217.285156 256.347656 632.324219 
222.167969 261.230469 627.441406 
222.167969 256.347656 632.324219 
217.285156 261.230469 632.324219 
222.167969 261.230469 632.324219 
227.050781 256.347656 627.441406 
231.933594 256.347656 627.441406 
227.050781 261.230469 627.441406 
227.050781 256.347656 632.324219 
231.933594 261.230469 627.441406 
231.933594 256.347656 632.324219 
227.050781 261.230469 632.324219 
231.933594 261.230469 632.324219 
222.167969 266.113281 627.441406 
222.167969 266.113281 632.324219 
222.167969 270.996094 632.324219 
217.285156 256.347656 637.207031 
222.167969 256.347656 637.207031 
217.285156 261.230469 637.207031 
217.285156 256.347656 642.089844 
222.167969 261.230469 637.207031 
222.167969 256.347656 642.089844 
217.285156 261.230469 642.089844 
222.167969 261.230469 642.089844 
227.050781 266.113281 632.324219 
227.050781 270.996094 632.324219 
227.050781 256.347656 637.207031 
231.933594 256.347656 637.207031 
227.050781 261.230469 637.207031 
227.050781 256.347656 642.089844 
231.933594 261.230469 637.207031 
231.933594 256.347656 642.089844 
227.050781 261.230469 642.089844 
231.933594 261.230469 642.089844 
222.167969 266.113281 637.207031 
217.285156 266.113281 642.089844 
222.167969 270.996094 637.207031 
222.167969 266.113281 642.089844 
227.050781 266.113281 637.207031 
231.933594 266.113281 637.207031 
227.050781 270.996094 637.207031 
227.050781 266.113281 642.089844 
231.933594 270.996094 637.207031 
231.933594 266.113281 642.089844 
227.050781 270.996094 642.089844 
231.933594 270.996094 642.089844 
222.167969 251.464844 646.972656 
222.167969 256.347656 646.972656 
222.167969 261.230469 646.972656 
227.050781 261.230469 646.972656 
227.050781 266.113281 646.972656 
231.933594 266.113281 646.972656 
227.050781 270.996094 646.972656 
231.933594 270.996094 646.972656 
227.050781 270.996094 651.855469 
222.167969 275.878906 632.324219 
222.167969 275.878906 637.207031 
222.167969 280.761719 637.207031 
227.050781 275.878906 637.207031 
227.050781 275.878906 642.089844 
231.933594 275.878906 642.089844 
227.050781 275.878906 646.972656 
231.933594 275.878906 646.972656 
227.050781 280.761719 646.972656 
227.050781 275.878906 651.855469 
227.050781 280.761719 651.855469 
227.050781 285.644531 646.972656 
227.050781 285.644531 651.855469 
227.050781 290.527344 651.855469 
227.050781 280.761719 656.738281 
227.050781 285.644531 656.738281 
227.050781 290.527344 656.738281 
227.050781 295.410156 651.855469 
227.050781 300.292969 651.855469 
227.050781 305.175781 651.855469 
227.050781 310.058594 651.855469 
227.050781 295.410156 656.738281 
227.050781 300.292969 656.738281 
227.050781 295.410156 661.621094 
231.933594 295.410156 661.621094 
227.050781 305.175781 656.738281 
227.050781 310.058594 656.738281 
231.933594 310.058594 661.621094 
231.933594 305.175781 666.503906 
231.933594 310.058594 666.503906 
236.816406 236.816406 627.441406 
236.816406 241.699219 627.441406 
236.816406 236.816406 632.324219 
241.699219 241.699219 627.441406 
236.816406 241.699219 632.324219 
236.816406 246.582031 627.441406 
241.699219 246.582031 627.441406 
236.816406 251.464844 627.441406 
236.816406 246.582031 632.324219 
241.699219 251.464844 627.441406 
236.816406 251.464844 632.324219 
241.699219 251.464844 632.324219 
236.816406 246.582031 637.207031 
236.816406 251.464844 637.207031 
236.816406 256.347656 627.441406 
241.699219 256.347656 627.441406 
236.816406 261.230469 627.441406 
236.816406 256.347656 632.324219 
241.699219 256.347656 632.324219 
236.816406 261.230469 632.324219 
241.699219 261.230469 632.324219 
246.582031 256.347656 627.441406 
236.816406 256.347656 637.207031 
236.816406 261.230469 637.207031 
236.816406 256.347656 642.089844 
241.699219 261.230469 637.207031 
236.816406 261.230469 642.089844 
236.816406 266.113281 637.207031 
236.816406 266.113281 642.089844 
236.816406 270.996094 642.089844 
236.816406 266.113281 646.972656 
236.816406 270.996094 646.972656 
349.121094 31.738281 681.152344 
344.238281 31.738281 686.035156 
349.121094 31.738281 686.035156 
344.238281 31.738281 690.917969 
349.121094 31.738281 690.917969 
349.121094 36.621094 690.917969 
349.121094 26.855469 700.683594 
344.238281 31.738281 695.800781 
349.121094 31.738281 695.800781 
344.238281 31.738281 700.683594 
349.121094 36.621094 695.800781 
349.121094 31.738281 700.683594 
349.121094 36.621094 700.683594 
358.886719 26.855469 671.386719 
363.769531 26.855469 671.386719 
358.886719 26.855469 676.269531 
358.886719 26.855469 681.152344 
363.769531 26.855469 676.269531 
363.769531 26.855469 681.152344 
354.003906 31.738281 676.269531 
358.886719 31.738281 676.269531 
354.003906 31.738281 681.152344 
358.886719 31.738281 681.152344 
363.769531 31.738281 676.269531 
368.652344 31.738281 676.269531 
363.769531 31.738281 681.152344 
368.652344 31.738281 681.152344 
368.652344 36.621094 681.152344 
373.535156 31.738281 676.269531 
354.003906 26.855469 686.035156 
358.886719 26.855469 686.035156 
354.003906 26.855469 690.917969 
358.886719 26.855469 690.917969 
354.003906 31.738281 686.035156 
358.886719 31.738281 686.035156 
354.003906 36.621094 686.035156 
354.003906 31.738281 690.917969 
358.886719 36.621094 686.035156 
358.886719 31.738281 690.917969 
354.003906 36.621094 690.917969 
358.886719 36.621094 690.917969 
354.003906 26.855469 695.800781 
358.886719 26.855469 695.800781 
354.003906 26.855469 700.683594 
363.769531 31.738281 686.035156 
363.769531 36.621094 686.035156 
363.769531 31.738281 690.917969 
368.652344 36.621094 686.035156 
363.769531 36.621094 690.917969 
354.003906 31.738281 695.800781 
358.886719 31.738281 695.800781 
354.003906 36.621094 695.800781 
354.003906 31.738281 700.683594 
358.886719 36.621094 695.800781 
358.886719 31.738281 700.683594 
354.003906 36.621094 700.683594 
358.886719 36.621094 700.683594 
363.769531 31.738281 695.800781 
363.769531 36.621094 695.800781 
368.652344 36.621094 695.800781 
363.769531 36.621094 700.683594 
373.535156 36.621094 686.035156 
349.121094 41.503906 700.683594 
363.769531 41.503906 690.917969 
368.652344 41.503906 690.917969 
354.003906 41.503906 695.800781 
358.886719 41.503906 695.800781 
354.003906 41.503906 700.683594 
358.886719 41.503906 700.683594 
354.003906 46.386719 700.683594 
358.886719 46.386719 700.683594 
363.769531 41.503906 695.800781 
