355.500000 157.500000 -148.500000 
355.500000 166.500000 -157.500000 
373.500000 157.500000 -202.500000 
391.500000 148.500000 -211.500000 
382.500000 157.500000 -211.500000 
391.500000 157.500000 -211.500000 
391.500000 148.500000 -202.500000 
382.500000 157.500000 -202.500000 
391.500000 157.500000 -202.500000 
373.500000 166.500000 -202.500000 
373.500000 175.500000 -202.500000 
373.500000 157.500000 -193.500000 
364.500000 157.500000 -184.500000 
373.500000 157.500000 -184.500000 
382.500000 166.500000 -211.500000 
391.500000 166.500000 -211.500000 
382.500000 175.500000 -211.500000 
382.500000 166.500000 -202.500000 
391.500000 175.500000 -211.500000 
391.500000 166.500000 -202.500000 
382.500000 175.500000 -202.500000 
391.500000 175.500000 -202.500000 
382.500000 148.500000 -193.500000 
391.500000 148.500000 -193.500000 
382.500000 157.500000 -193.500000 
382.500000 148.500000 -184.500000 
391.500000 157.500000 -193.500000 
391.500000 148.500000 -184.500000 
382.500000 157.500000 -184.500000 
364.500000 166.500000 -193.500000 
373.500000 166.500000 -193.500000 
364.500000 166.500000 -184.500000 
373.500000 166.500000 -184.500000 
382.500000 166.500000 -193.500000 
382.500000 166.500000 -184.500000 
364.500000 148.500000 -175.500000 
373.500000 148.500000 -175.500000 
364.500000 157.500000 -175.500000 
364.500000 148.500000 -166.500000 
373.500000 157.500000 -175.500000 
373.500000 148.500000 -166.500000 
364.500000 157.500000 -166.500000 
373.500000 157.500000 -166.500000 
382.500000 148.500000 -175.500000 
382.500000 157.500000 -175.500000 
364.500000 166.500000 -175.500000 
373.500000 166.500000 -175.500000 
364.500000 166.500000 -166.500000 
364.500000 148.500000 -157.500000 
364.500000 157.500000 -157.500000 
292.500000 103.500000 -121.500000 
292.500000 94.500000 -112.500000 
301.500000 103.500000 -121.500000 
301.500000 94.500000 -112.500000 
292.500000 103.500000 -112.500000 
301.500000 103.500000 -112.500000 
310.500000 103.500000 -121.500000 
319.500000 103.500000 -121.500000 
310.500000 103.500000 -112.500000 
310.500000 121.500000 -130.500000 
319.500000 121.500000 -130.500000 
292.500000 130.500000 -130.500000 
301.500000 130.500000 -130.500000 
292.500000 139.500000 -130.500000 
301.500000 139.500000 -130.500000 
292.500000 112.500000 -121.500000 
301.500000 112.500000 -121.500000 
292.500000 121.500000 -121.500000 
292.500000 112.500000 -112.500000 
301.500000 121.500000 -121.500000 
301.500000 112.500000 -112.500000 
292.500000 121.500000 -112.500000 
301.500000 121.500000 -112.500000 
310.500000 130.500000 -130.500000 
319.500000 130.500000 -130.500000 
310.500000 139.500000 -130.500000 
319.500000 139.500000 -130.500000 
310.500000 112.500000 -121.500000 
319.500000 112.500000 -121.500000 
310.500000 121.500000 -121.500000 
310.500000 112.500000 -112.500000 
319.500000 121.500000 -121.500000 
292.500000 130.500000 -121.500000 
301.500000 130.500000 -121.500000 
292.500000 139.500000 -121.500000 
292.500000 130.500000 -112.500000 
301.500000 139.500000 -121.500000 
310.500000 130.500000 -121.500000 
319.500000 130.500000 -121.500000 
310.500000 139.500000 -121.500000 
319.500000 139.500000 -121.500000 
328.500000 121.500000 -139.500000 
328.500000 112.500000 -130.500000 
337.500000 121.500000 -139.500000 
337.500000 112.500000 -130.500000 
328.500000 121.500000 -130.500000 
337.500000 121.500000 -130.500000 
346.500000 121.500000 -139.500000 
328.500000 130.500000 -139.500000 
337.500000 130.500000 -139.500000 
328.500000 139.500000 -139.500000 
328.500000 130.500000 -130.500000 
337.500000 139.500000 -139.500000 
337.500000 130.500000 -130.500000 
328.500000 139.500000 -130.500000 
337.500000 139.500000 -130.500000 
328.500000 112.500000 -121.500000 
337.500000 112.500000 -121.500000 
328.500000 121.500000 -121.500000 
337.500000 121.500000 -121.500000 
346.500000 130.500000 -139.500000 
346.500000 139.500000 -139.500000 
328.500000 130.500000 -121.500000 
337.500000 130.500000 -121.500000 
328.500000 139.500000 -121.500000 
310.500000 148.500000 -130.500000 
319.500000 148.500000 -130.500000 
328.500000 148.500000 -139.500000 
337.500000 148.500000 -139.500000 
328.500000 148.500000 -130.500000 
337.500000 157.500000 -139.500000 
337.500000 148.500000 -130.500000 
346.500000 148.500000 -139.500000 
346.500000 157.500000 -139.500000 
13.500000 -40.500000 13.500000 
13.500000 -40.500000 22.500000 
13.500000 -40.500000 31.500000 
22.500000 -40.500000 22.500000 
22.500000 -40.500000 31.500000 
31.500000 -40.500000 31.500000 
4.500000 -31.500000 4.500000 
13.500000 -31.500000 4.500000 
4.500000 -22.500000 4.500000 
4.500000 -31.500000 13.500000 
13.500000 -22.500000 4.500000 
13.500000 -31.500000 13.500000 
4.500000 -22.500000 13.500000 
13.500000 -22.500000 13.500000 
22.500000 -22.500000 4.500000 
22.500000 -31.500000 13.500000 
22.500000 -22.500000 13.500000 
4.500000 -13.500000 4.500000 
13.500000 -13.500000 4.500000 
4.500000 -13.500000 13.500000 
13.500000 -13.500000 13.500000 
4.500000 -4.500000 13.500000 
13.500000 -4.500000 13.500000 
4.500000 -31.500000 22.500000 
13.500000 -31.500000 22.500000 
4.500000 -22.500000 22.500000 
4.500000 -31.500000 31.500000 
13.500000 -22.500000 22.500000 
13.500000 -31.500000 31.500000 
4.500000 -22.500000 31.500000 
13.500000 -22.500000 31.500000 
22.500000 -13.500000 13.500000 
22.500000 -4.500000 13.500000 
22.500000 -31.500000 22.500000 
31.500000 -31.500000 22.500000 
22.500000 -22.500000 22.500000 
22.500000 -31.500000 31.500000 
31.500000 -22.500000 22.500000 
31.500000 -31.500000 31.500000 
22.500000 -22.500000 31.500000 
31.500000 -22.500000 31.500000 
4.500000 -13.500000 22.500000 
13.500000 -13.500000 22.500000 
4.500000 -4.500000 22.500000 
4.500000 -13.500000 31.500000 
13.500000 -4.500000 22.500000 
13.500000 -13.500000 31.500000 
4.500000 -4.500000 31.500000 
13.500000 -4.500000 31.500000 
22.500000 -13.500000 22.500000 
31.500000 -13.500000 22.500000 
22.500000 -4.500000 22.500000 
22.500000 -13.500000 31.500000 
31.500000 -13.500000 31.500000 
22.500000 -4.500000 31.500000 
31.500000 -4.500000 31.500000 
13.500000 -40.500000 40.500000 
13.500000 -40.500000 49.500000 
22.500000 -40.500000 40.500000 
22.500000 -40.500000 49.500000 
31.500000 -40.500000 49.500000 
13.500000 -40.500000 58.500000 
13.500000 -40.500000 67.500000 
22.500000 -40.500000 58.500000 
31.500000 -40.500000 58.500000 
22.500000 -40.500000 67.500000 
31.500000 -40.500000 67.500000 
40.500000 -40.500000 58.500000 
40.500000 -40.500000 67.500000 
4.500000 -31.500000 40.500000 
13.500000 -31.500000 40.500000 
4.500000 -22.500000 40.500000 
4.500000 -31.500000 49.500000 
13.500000 -22.500000 40.500000 
13.500000 -31.500000 49.500000 
4.500000 -22.500000 49.500000 
13.500000 -22.500000 49.500000 
22.500000 -31.500000 40.500000 
31.500000 -31.500000 40.500000 
22.500000 -22.500000 40.500000 
22.500000 -31.500000 49.500000 
31.500000 -22.500000 40.500000 
31.500000 -31.500000 49.500000 
22.500000 -22.500000 49.500000 
31.500000 -22.500000 49.500000 
4.500000 -13.500000 40.500000 
13.500000 -13.500000 40.500000 
4.500000 -4.500000 40.500000 
4.500000 -13.500000 49.500000 
13.500000 -4.500000 40.500000 
13.500000 -13.500000 49.500000 
4.500000 -4.500000 49.500000 
13.500000 -4.500000 49.500000 
4.500000 -31.500000 58.500000 
13.500000 -31.500000 58.500000 
4.500000 -22.500000 58.500000 
4.500000 -31.500000 67.500000 
13.500000 -22.500000 58.500000 
13.500000 -31.500000 67.500000 
4.500000 -22.500000 67.500000 
13.500000 -22.500000 67.500000 
22.500000 -13.500000 40.500000 
31.500000 -13.500000 40.500000 
22.500000 -4.500000 40.500000 
22.500000 -13.500000 49.500000 
31.500000 -4.500000 40.500000 
31.500000 -13.500000 49.500000 
22.500000 -4.500000 49.500000 
31.500000 -4.500000 49.500000 
22.500000 -31.500000 58.500000 
31.500000 -31.500000 58.500000 
22.500000 -22.500000 58.500000 
22.500000 -31.500000 67.500000 
31.500000 -22.500000 58.500000 
31.500000 -31.500000 67.500000 
22.500000 -22.500000 67.500000 
31.500000 -22.500000 67.500000 
4.500000 -13.500000 58.500000 
13.500000 -13.500000 58.500000 
4.500000 -4.500000 58.500000 
4.500000 -13.500000 67.500000 
13.500000 -4.500000 58.500000 
13.500000 -13.500000 67.500000 
4.500000 -4.500000 67.500000 
13.500000 -4.500000 67.500000 
22.500000 -13.500000 58.500000 
31.500000 -13.500000 58.500000 
22.500000 -4.500000 58.500000 
22.500000 -13.500000 67.500000 
31.500000 -4.500000 58.500000 
31.500000 -13.500000 67.500000 
22.500000 -4.500000 67.500000 
31.500000 -4.500000 67.500000 
40.500000 -22.500000 40.500000 
40.500000 -22.500000 49.500000 
40.500000 -13.500000 40.500000 
40.500000 -13.500000 49.500000 
40.500000 -31.500000 58.500000 
40.500000 -22.500000 58.500000 
40.500000 -31.500000 67.500000 
40.500000 -22.500000 67.500000 
49.500000 -22.500000 67.500000 
40.500000 -13.500000 58.500000 
40.500000 -4.500000 58.500000 
40.500000 -13.500000 67.500000 
49.500000 -13.500000 67.500000 
40.500000 -4.500000 67.500000 
49.500000 -4.500000 67.500000 
13.500000 -40.500000 76.500000 
22.500000 -40.500000 76.500000 
31.500000 -40.500000 76.500000 
40.500000 -40.500000 76.500000 
4.500000 -31.500000 76.500000 
13.500000 -31.500000 76.500000 
4.500000 -22.500000 76.500000 
4.500000 -31.500000 85.500000 
13.500000 -22.500000 76.500000 
13.500000 -31.500000 85.500000 
4.500000 -22.500000 85.500000 
13.500000 -22.500000 85.500000 
22.500000 -31.500000 76.500000 
31.500000 -31.500000 76.500000 
22.500000 -22.500000 76.500000 
22.500000 -31.500000 85.500000 
31.500000 -22.500000 76.500000 
22.500000 -22.500000 85.500000 
4.500000 -13.500000 76.500000 
13.500000 -13.500000 76.500000 
4.500000 -13.500000 85.500000 
13.500000 -4.500000 76.500000 
13.500000 -13.500000 85.500000 
13.500000 -4.500000 85.500000 
4.500000 -31.500000 94.500000 
13.500000 -31.500000 94.500000 
4.500000 -22.500000 94.500000 
4.500000 -31.500000 103.500000 
13.500000 -22.500000 94.500000 
13.500000 -31.500000 103.500000 
4.500000 -22.500000 103.500000 
13.500000 -22.500000 103.500000 
22.500000 -13.500000 76.500000 
31.500000 -13.500000 76.500000 
22.500000 -4.500000 76.500000 
22.500000 -13.500000 85.500000 
31.500000 -4.500000 76.500000 
22.500000 -4.500000 85.500000 
22.500000 -31.500000 94.500000 
22.500000 -22.500000 94.500000 
22.500000 -31.500000 103.500000 
22.500000 -22.500000 103.500000 
4.500000 -13.500000 94.500000 
13.500000 -13.500000 94.500000 
4.500000 -13.500000 103.500000 
13.500000 -4.500000 94.500000 
13.500000 -13.500000 103.500000 
13.500000 -4.500000 103.500000 
22.500000 -13.500000 94.500000 
22.500000 -13.500000 103.500000 
40.500000 -31.500000 76.500000 
40.500000 -22.500000 76.500000 
40.500000 -31.500000 85.500000 
49.500000 -22.500000 76.500000 
49.500000 -31.500000 85.500000 
40.500000 -22.500000 85.500000 
49.500000 -22.500000 85.500000 
58.500000 -31.500000 85.500000 
58.500000 -22.500000 85.500000 
40.500000 -13.500000 76.500000 
49.500000 -13.500000 76.500000 
40.500000 -4.500000 76.500000 
40.500000 -13.500000 85.500000 
49.500000 -4.500000 76.500000 
49.500000 -13.500000 85.500000 
40.500000 -4.500000 85.500000 
49.500000 -4.500000 85.500000 
49.500000 -31.500000 94.500000 
40.500000 -22.500000 94.500000 
49.500000 -22.500000 94.500000 
49.500000 -22.500000 103.500000 
58.500000 -13.500000 85.500000 
58.500000 -4.500000 85.500000 
58.500000 -31.500000 94.500000 
67.500000 -31.500000 94.500000 
58.500000 -22.500000 94.500000 
58.500000 -31.500000 103.500000 
67.500000 -22.500000 94.500000 
67.500000 -31.500000 103.500000 
58.500000 -22.500000 103.500000 
67.500000 -22.500000 103.500000 
40.500000 -13.500000 94.500000 
49.500000 -13.500000 94.500000 
40.500000 -4.500000 94.500000 
49.500000 -4.500000 94.500000 
49.500000 -13.500000 103.500000 
40.500000 -4.500000 103.500000 
49.500000 -4.500000 103.500000 
58.500000 -13.500000 94.500000 
67.500000 -13.500000 94.500000 
58.500000 -4.500000 94.500000 
58.500000 -13.500000 103.500000 
67.500000 -4.500000 94.500000 
67.500000 -13.500000 103.500000 
58.500000 -4.500000 103.500000 
67.500000 -4.500000 103.500000 
4.500000 -31.500000 112.500000 
13.500000 -31.500000 112.500000 
4.500000 -22.500000 112.500000 
4.500000 -31.500000 121.500000 
13.500000 -22.500000 112.500000 
13.500000 -31.500000 121.500000 
4.500000 -22.500000 121.500000 
13.500000 -22.500000 121.500000 
22.500000 -31.500000 112.500000 
22.500000 -22.500000 112.500000 
22.500000 -31.500000 121.500000 
22.500000 -22.500000 121.500000 
4.500000 -13.500000 112.500000 
13.500000 -13.500000 112.500000 
4.500000 -13.500000 121.500000 
13.500000 -13.500000 121.500000 
4.500000 -31.500000 130.500000 
13.500000 -31.500000 130.500000 
4.500000 -22.500000 130.500000 
4.500000 -31.500000 139.500000 
13.500000 -22.500000 130.500000 
13.500000 -31.500000 139.500000 
4.500000 -22.500000 139.500000 
13.500000 -22.500000 139.500000 
22.500000 -13.500000 112.500000 
22.500000 -31.500000 130.500000 
22.500000 -22.500000 130.500000 
22.500000 -31.500000 139.500000 
22.500000 -22.500000 139.500000 
4.500000 -13.500000 130.500000 
13.500000 -13.500000 130.500000 
4.500000 -13.500000 139.500000 
13.500000 -13.500000 139.500000 
22.500000 -13.500000 130.500000 
22.500000 -13.500000 139.500000 
58.500000 -22.500000 112.500000 
67.500000 -22.500000 112.500000 
67.500000 -22.500000 121.500000 
49.500000 -13.500000 112.500000 
49.500000 -4.500000 112.500000 
58.500000 -13.500000 112.500000 
67.500000 -13.500000 112.500000 
58.500000 -4.500000 112.500000 
58.500000 -13.500000 121.500000 
67.500000 -4.500000 112.500000 
67.500000 -13.500000 121.500000 
58.500000 -4.500000 121.500000 
67.500000 -4.500000 121.500000 
67.500000 -22.500000 130.500000 
67.500000 -22.500000 139.500000 
67.500000 -13.500000 130.500000 
67.500000 -4.500000 130.500000 
67.500000 -13.500000 139.500000 
67.500000 -4.500000 139.500000 
76.500000 -31.500000 103.500000 
76.500000 -22.500000 103.500000 
76.500000 -13.500000 103.500000 
76.500000 -4.500000 103.500000 
76.500000 -31.500000 112.500000 
76.500000 -22.500000 112.500000 
76.500000 -31.500000 121.500000 
76.500000 -22.500000 121.500000 
85.500000 -22.500000 121.500000 
76.500000 -13.500000 112.500000 
76.500000 -4.500000 112.500000 
76.500000 -13.500000 121.500000 
85.500000 -13.500000 121.500000 
76.500000 -4.500000 121.500000 
85.500000 -4.500000 121.500000 
76.500000 -31.500000 130.500000 
76.500000 -22.500000 130.500000 
76.500000 -31.500000 139.500000 
85.500000 -22.500000 130.500000 
85.500000 -31.500000 139.500000 
76.500000 -22.500000 139.500000 
85.500000 -22.500000 139.500000 
76.500000 -13.500000 130.500000 
85.500000 -13.500000 130.500000 
76.500000 -4.500000 130.500000 
76.500000 -13.500000 139.500000 
85.500000 -4.500000 130.500000 
85.500000 -13.500000 139.500000 
76.500000 -4.500000 139.500000 
85.500000 -4.500000 139.500000 
94.500000 -13.500000 139.500000 
94.500000 -4.500000 139.500000 
13.500000 -49.500000 148.500000 
4.500000 -40.500000 148.500000 
4.500000 -49.500000 157.500000 
13.500000 -40.500000 148.500000 
13.500000 -49.500000 157.500000 
4.500000 -40.500000 157.500000 
13.500000 -40.500000 157.500000 
22.500000 -49.500000 148.500000 
22.500000 -40.500000 148.500000 
22.500000 -49.500000 157.500000 
22.500000 -40.500000 157.500000 
4.500000 -49.500000 166.500000 
13.500000 -49.500000 166.500000 
4.500000 -40.500000 166.500000 
13.500000 -40.500000 166.500000 
13.500000 -49.500000 175.500000 
4.500000 -40.500000 175.500000 
13.500000 -40.500000 175.500000 
22.500000 -49.500000 166.500000 
22.500000 -40.500000 166.500000 
22.500000 -49.500000 175.500000 
22.500000 -40.500000 175.500000 
4.500000 -31.500000 148.500000 
13.500000 -31.500000 148.500000 
4.500000 -22.500000 148.500000 
4.500000 -31.500000 157.500000 
13.500000 -22.500000 148.500000 
13.500000 -31.500000 157.500000 
4.500000 -22.500000 157.500000 
13.500000 -22.500000 157.500000 
22.500000 -31.500000 148.500000 
22.500000 -22.500000 148.500000 
22.500000 -31.500000 157.500000 
22.500000 -22.500000 157.500000 
4.500000 -13.500000 148.500000 
13.500000 -13.500000 148.500000 
4.500000 -4.500000 148.500000 
4.500000 -13.500000 157.500000 
13.500000 -4.500000 148.500000 
13.500000 -13.500000 157.500000 
4.500000 -4.500000 157.500000 
13.500000 -4.500000 157.500000 
4.500000 -31.500000 166.500000 
13.500000 -31.500000 166.500000 
4.500000 -22.500000 166.500000 
4.500000 -31.500000 175.500000 
13.500000 -22.500000 166.500000 
13.500000 -31.500000 175.500000 
4.500000 -22.500000 175.500000 
13.500000 -22.500000 175.500000 
22.500000 -13.500000 148.500000 
22.500000 -4.500000 148.500000 
22.500000 -13.500000 157.500000 
22.500000 -4.500000 157.500000 
22.500000 -31.500000 166.500000 
22.500000 -22.500000 166.500000 
22.500000 -31.500000 175.500000 
22.500000 -22.500000 175.500000 
4.500000 -13.500000 166.500000 
13.500000 -13.500000 166.500000 
4.500000 -4.500000 166.500000 
4.500000 -13.500000 175.500000 
13.500000 -4.500000 166.500000 
13.500000 -13.500000 175.500000 
4.500000 -4.500000 175.500000 
13.500000 -4.500000 175.500000 
22.500000 -13.500000 166.500000 
22.500000 -4.500000 166.500000 
22.500000 -13.500000 175.500000 
22.500000 -4.500000 175.500000 
4.500000 -40.500000 184.500000 
4.500000 -49.500000 193.500000 
13.500000 -40.500000 184.500000 
13.500000 -49.500000 193.500000 
4.500000 -40.500000 193.500000 
13.500000 -40.500000 193.500000 
4.500000 -58.500000 202.500000 
13.500000 -58.500000 202.500000 
4.500000 -58.500000 211.500000 
13.500000 -58.500000 211.500000 
22.500000 -40.500000 184.500000 
22.500000 -49.500000 193.500000 
22.500000 -40.500000 193.500000 
4.500000 -49.500000 202.500000 
13.500000 -49.500000 202.500000 
4.500000 -40.500000 202.500000 
4.500000 -49.500000 211.500000 
13.500000 -40.500000 202.500000 
13.500000 -49.500000 211.500000 
4.500000 -40.500000 211.500000 
13.500000 -40.500000 211.500000 
22.500000 -49.500000 202.500000 
22.500000 -40.500000 202.500000 
22.500000 -40.500000 211.500000 
4.500000 -31.500000 184.500000 
13.500000 -31.500000 184.500000 
4.500000 -22.500000 184.500000 
4.500000 -31.500000 193.500000 
13.500000 -22.500000 184.500000 
13.500000 -31.500000 193.500000 
4.500000 -22.500000 193.500000 
13.500000 -22.500000 193.500000 
22.500000 -31.500000 184.500000 
22.500000 -22.500000 184.500000 
22.500000 -31.500000 193.500000 
22.500000 -22.500000 193.500000 
4.500000 -13.500000 184.500000 
13.500000 -13.500000 184.500000 
4.500000 -4.500000 184.500000 
4.500000 -13.500000 193.500000 
13.500000 -4.500000 184.500000 
13.500000 -13.500000 193.500000 
4.500000 -4.500000 193.500000 
13.500000 -4.500000 193.500000 
4.500000 -31.500000 202.500000 
13.500000 -31.500000 202.500000 
4.500000 -22.500000 202.500000 
4.500000 -31.500000 211.500000 
13.500000 -22.500000 202.500000 
13.500000 -31.500000 211.500000 
4.500000 -22.500000 211.500000 
13.500000 -22.500000 211.500000 
22.500000 -13.500000 184.500000 
22.500000 -4.500000 184.500000 
22.500000 -13.500000 193.500000 
22.500000 -31.500000 202.500000 
22.500000 -22.500000 202.500000 
22.500000 -31.500000 211.500000 
22.500000 -22.500000 211.500000 
4.500000 -13.500000 202.500000 
13.500000 -13.500000 202.500000 
4.500000 -4.500000 202.500000 
4.500000 -13.500000 211.500000 
13.500000 -13.500000 211.500000 
4.500000 -4.500000 211.500000 
22.500000 -13.500000 202.500000 
22.500000 -13.500000 211.500000 
4.500000 -76.500000 247.500000 
85.500000 -40.500000 148.500000 
94.500000 -49.500000 157.500000 
94.500000 -40.500000 157.500000 
103.500000 -40.500000 157.500000 
76.500000 -31.500000 148.500000 
85.500000 -31.500000 148.500000 
76.500000 -22.500000 148.500000 
85.500000 -22.500000 148.500000 
85.500000 -22.500000 157.500000 
94.500000 -22.500000 148.500000 
94.500000 -31.500000 157.500000 
103.500000 -31.500000 157.500000 
94.500000 -22.500000 157.500000 
103.500000 -22.500000 157.500000 
76.500000 -13.500000 148.500000 
85.500000 -13.500000 148.500000 
76.500000 -4.500000 148.500000 
76.500000 -13.500000 157.500000 
85.500000 -4.500000 148.500000 
85.500000 -13.500000 157.500000 
76.500000 -4.500000 157.500000 
85.500000 -4.500000 157.500000 
94.500000 -13.500000 148.500000 
103.500000 -13.500000 148.500000 
94.500000 -4.500000 148.500000 
94.500000 -13.500000 157.500000 
103.500000 -4.500000 148.500000 
103.500000 -13.500000 157.500000 
94.500000 -4.500000 157.500000 
103.500000 -4.500000 157.500000 
103.500000 -22.500000 166.500000 
94.500000 -13.500000 166.500000 
103.500000 -13.500000 166.500000 
94.500000 -4.500000 166.500000 
103.500000 -4.500000 166.500000 
112.500000 -31.500000 157.500000 
112.500000 -22.500000 157.500000 
112.500000 -13.500000 157.500000 
112.500000 -4.500000 157.500000 
121.500000 -31.500000 166.500000 
112.500000 -22.500000 166.500000 
121.500000 -22.500000 166.500000 
130.500000 -31.500000 166.500000 
130.500000 -22.500000 166.500000 
139.500000 -22.500000 175.500000 
112.500000 -13.500000 166.500000 
121.500000 -13.500000 166.500000 
112.500000 -4.500000 166.500000 
121.500000 -4.500000 166.500000 
121.500000 -13.500000 175.500000 
112.500000 -4.500000 175.500000 
121.500000 -4.500000 175.500000 
130.500000 -13.500000 166.500000 
139.500000 -13.500000 166.500000 
130.500000 -4.500000 166.500000 
130.500000 -13.500000 175.500000 
139.500000 -4.500000 166.500000 
139.500000 -13.500000 175.500000 
130.500000 -4.500000 175.500000 
139.500000 -4.500000 175.500000 
139.500000 -13.500000 184.500000 
130.500000 -4.500000 184.500000 
139.500000 -4.500000 184.500000 
130.500000 -4.500000 193.500000 
139.500000 -4.500000 193.500000 
139.500000 -4.500000 202.500000 
4.500000 -58.500000 220.500000 
4.500000 -58.500000 229.500000 
4.500000 -49.500000 220.500000 
13.500000 -49.500000 220.500000 
4.500000 -40.500000 220.500000 
4.500000 -49.500000 229.500000 
13.500000 -40.500000 220.500000 
13.500000 -49.500000 229.500000 
4.500000 -40.500000 229.500000 
13.500000 -40.500000 229.500000 
4.500000 -58.500000 238.500000 
4.500000 -67.500000 247.500000 
13.500000 -58.500000 238.500000 
4.500000 -58.500000 247.500000 
13.500000 -58.500000 247.500000 
4.500000 -49.500000 238.500000 
13.500000 -49.500000 238.500000 
4.500000 -40.500000 238.500000 
13.500000 -40.500000 238.500000 
13.500000 -49.500000 247.500000 
4.500000 -40.500000 247.500000 
13.500000 -40.500000 247.500000 
22.500000 -40.500000 238.500000 
22.500000 -40.500000 247.500000 
4.500000 -31.500000 220.500000 
13.500000 -31.500000 220.500000 
4.500000 -22.500000 220.500000 
4.500000 -31.500000 229.500000 
13.500000 -22.500000 220.500000 
13.500000 -31.500000 229.500000 
4.500000 -22.500000 229.500000 
13.500000 -22.500000 229.500000 
22.500000 -31.500000 220.500000 
22.500000 -22.500000 220.500000 
22.500000 -31.500000 229.500000 
22.500000 -22.500000 229.500000 
4.500000 -13.500000 220.500000 
13.500000 -13.500000 220.500000 
4.500000 -4.500000 220.500000 
4.500000 -13.500000 229.500000 
13.500000 -13.500000 229.500000 
4.500000 -4.500000 229.500000 
4.500000 -31.500000 238.500000 
13.500000 -31.500000 238.500000 
4.500000 -22.500000 238.500000 
4.500000 -31.500000 247.500000 
13.500000 -22.500000 238.500000 
13.500000 -31.500000 247.500000 
4.500000 -22.500000 247.500000 
13.500000 -22.500000 247.500000 
22.500000 -13.500000 220.500000 
22.500000 -13.500000 229.500000 
22.500000 -31.500000 238.500000 
31.500000 -31.500000 238.500000 
22.500000 -22.500000 238.500000 
22.500000 -31.500000 247.500000 
31.500000 -22.500000 238.500000 
31.500000 -31.500000 247.500000 
22.500000 -22.500000 247.500000 
31.500000 -22.500000 247.500000 
4.500000 -13.500000 238.500000 
13.500000 -13.500000 238.500000 
4.500000 -4.500000 238.500000 
4.500000 -13.500000 247.500000 
13.500000 -13.500000 247.500000 
4.500000 -4.500000 247.500000 
22.500000 -13.500000 238.500000 
22.500000 -13.500000 247.500000 
13.500000 -58.500000 256.500000 
13.500000 -58.500000 265.500000 
4.500000 -49.500000 256.500000 
13.500000 -49.500000 256.500000 
4.500000 -40.500000 256.500000 
4.500000 -49.500000 265.500000 
13.500000 -40.500000 256.500000 
13.500000 -49.500000 265.500000 
4.500000 -40.500000 265.500000 
13.500000 -40.500000 265.500000 
13.500000 -58.500000 274.500000 
22.500000 -40.500000 256.500000 
22.500000 -49.500000 265.500000 
22.500000 -40.500000 265.500000 
22.500000 -58.500000 283.500000 
31.500000 -58.500000 283.500000 
4.500000 -49.500000 274.500000 
13.500000 -49.500000 274.500000 
4.500000 -40.500000 274.500000 
4.500000 -49.500000 283.500000 
13.500000 -40.500000 274.500000 
13.500000 -49.500000 283.500000 
4.500000 -40.500000 283.500000 
13.500000 -40.500000 283.500000 
22.500000 -49.500000 274.500000 
22.500000 -40.500000 274.500000 
22.500000 -49.500000 283.500000 
31.500000 -40.500000 274.500000 
31.500000 -49.500000 283.500000 
22.500000 -40.500000 283.500000 
31.500000 -40.500000 283.500000 
40.500000 -49.500000 283.500000 
40.500000 -40.500000 283.500000 
4.500000 -31.500000 256.500000 
13.500000 -31.500000 256.500000 
4.500000 -22.500000 256.500000 
4.500000 -31.500000 265.500000 
13.500000 -22.500000 256.500000 
13.500000 -31.500000 265.500000 
4.500000 -22.500000 265.500000 
13.500000 -22.500000 265.500000 
22.500000 -31.500000 256.500000 
31.500000 -31.500000 256.500000 
22.500000 -22.500000 256.500000 
22.500000 -31.500000 265.500000 
31.500000 -22.500000 256.500000 
31.500000 -31.500000 265.500000 
22.500000 -22.500000 265.500000 
31.500000 -22.500000 265.500000 
4.500000 -13.500000 256.500000 
13.500000 -13.500000 256.500000 
4.500000 -4.500000 256.500000 
4.500000 -13.500000 265.500000 
13.500000 -13.500000 265.500000 
4.500000 -4.500000 265.500000 
13.500000 -4.500000 265.500000 
4.500000 -31.500000 274.500000 
13.500000 -31.500000 274.500000 
4.500000 -22.500000 274.500000 
4.500000 -31.500000 283.500000 
13.500000 -22.500000 274.500000 
13.500000 -31.500000 283.500000 
4.500000 -22.500000 283.500000 
13.500000 -22.500000 283.500000 
22.500000 -13.500000 256.500000 
22.500000 -13.500000 265.500000 
22.500000 -31.500000 274.500000 
31.500000 -31.500000 274.500000 
22.500000 -22.500000 274.500000 
22.500000 -31.500000 283.500000 
31.500000 -22.500000 274.500000 
31.500000 -31.500000 283.500000 
22.500000 -22.500000 283.500000 
31.500000 -22.500000 283.500000 
4.500000 -13.500000 274.500000 
13.500000 -13.500000 274.500000 
4.500000 -4.500000 274.500000 
4.500000 -13.500000 283.500000 
13.500000 -4.500000 274.500000 
13.500000 -13.500000 283.500000 
4.500000 -4.500000 283.500000 
13.500000 -4.500000 283.500000 
22.500000 -13.500000 274.500000 
31.500000 -13.500000 274.500000 
22.500000 -4.500000 274.500000 
22.500000 -13.500000 283.500000 
31.500000 -13.500000 283.500000 
22.500000 -4.500000 283.500000 
31.500000 -4.500000 283.500000 
40.500000 -22.500000 274.500000 
40.500000 -31.500000 283.500000 
40.500000 -22.500000 283.500000 
40.500000 -13.500000 274.500000 
40.500000 -13.500000 283.500000 
148.500000 -13.500000 184.500000 
148.500000 -4.500000 184.500000 
148.500000 -13.500000 193.500000 
148.500000 -4.500000 193.500000 
148.500000 -13.500000 202.500000 
148.500000 -4.500000 202.500000 
157.500000 -4.500000 202.500000 
157.500000 -13.500000 211.500000 
148.500000 -4.500000 211.500000 
157.500000 -4.500000 211.500000 
157.500000 -13.500000 220.500000 
148.500000 -4.500000 220.500000 
157.500000 -4.500000 220.500000 
166.500000 -13.500000 220.500000 
175.500000 -13.500000 220.500000 
166.500000 -4.500000 220.500000 
175.500000 -4.500000 220.500000 
175.500000 -4.500000 229.500000 
184.500000 -13.500000 229.500000 
193.500000 -13.500000 229.500000 
184.500000 -4.500000 229.500000 
193.500000 -4.500000 229.500000 
202.500000 -4.500000 229.500000 
238.500000 -4.500000 247.500000 
247.500000 -4.500000 256.500000 
13.500000 -40.500000 292.500000 
4.500000 -40.500000 301.500000 
13.500000 -40.500000 301.500000 
22.500000 -49.500000 292.500000 
31.500000 -49.500000 292.500000 
22.500000 -40.500000 292.500000 
22.500000 -49.500000 301.500000 
31.500000 -40.500000 292.500000 
31.500000 -49.500000 301.500000 
22.500000 -40.500000 301.500000 
31.500000 -40.500000 301.500000 
31.500000 -58.500000 319.500000 
4.500000 -40.500000 310.500000 
13.500000 -40.500000 310.500000 
13.500000 -49.500000 319.500000 
4.500000 -40.500000 319.500000 
13.500000 -40.500000 319.500000 
22.500000 -49.500000 310.500000 
31.500000 -49.500000 310.500000 
22.500000 -40.500000 310.500000 
22.500000 -49.500000 319.500000 
31.500000 -40.500000 310.500000 
31.500000 -49.500000 319.500000 
22.500000 -40.500000 319.500000 
31.500000 -40.500000 319.500000 
40.500000 -58.500000 301.500000 
40.500000 -49.500000 292.500000 
49.500000 -49.500000 292.500000 
40.500000 -40.500000 292.500000 
40.500000 -49.500000 301.500000 
49.500000 -40.500000 292.500000 
49.500000 -49.500000 301.500000 
40.500000 -40.500000 301.500000 
49.500000 -40.500000 301.500000 
40.500000 -58.500000 310.500000 
40.500000 -58.500000 319.500000 
58.500000 -40.500000 301.500000 
40.500000 -49.500000 310.500000 
49.500000 -49.500000 310.500000 
40.500000 -40.500000 310.500000 
40.500000 -49.500000 319.500000 
49.500000 -40.500000 310.500000 
49.500000 -49.500000 319.500000 
40.500000 -40.500000 319.500000 
49.500000 -40.500000 319.500000 
58.500000 -40.500000 310.500000 
58.500000 -49.500000 319.500000 
67.500000 -40.500000 310.500000 
58.500000 -40.500000 319.500000 
67.500000 -40.500000 319.500000 
4.500000 -31.500000 292.500000 
13.500000 -31.500000 292.500000 
4.500000 -22.500000 292.500000 
4.500000 -31.500000 301.500000 
13.500000 -22.500000 292.500000 
13.500000 -31.500000 301.500000 
4.500000 -22.500000 301.500000 
13.500000 -22.500000 301.500000 
22.500000 -31.500000 292.500000 
31.500000 -31.500000 292.500000 
22.500000 -22.500000 292.500000 
22.500000 -31.500000 301.500000 
31.500000 -22.500000 292.500000 
31.500000 -31.500000 301.500000 
22.500000 -22.500000 301.500000 
31.500000 -22.500000 301.500000 
4.500000 -13.500000 292.500000 
13.500000 -13.500000 292.500000 
4.500000 -4.500000 292.500000 
4.500000 -13.500000 301.500000 
13.500000 -4.500000 292.500000 
13.500000 -13.500000 301.500000 
4.500000 -4.500000 301.500000 
13.500000 -4.500000 301.500000 
4.500000 -31.500000 310.500000 
13.500000 -31.500000 310.500000 
4.500000 -22.500000 310.500000 
4.500000 -31.500000 319.500000 
13.500000 -22.500000 310.500000 
13.500000 -31.500000 319.500000 
4.500000 -22.500000 319.500000 
13.500000 -22.500000 319.500000 
22.500000 -13.500000 292.500000 
31.500000 -13.500000 292.500000 
22.500000 -4.500000 292.500000 
22.500000 -13.500000 301.500000 
31.500000 -4.500000 292.500000 
31.500000 -13.500000 301.500000 
22.500000 -4.500000 301.500000 
31.500000 -4.500000 301.500000 
22.500000 -31.500000 310.500000 
31.500000 -31.500000 310.500000 
22.500000 -22.500000 310.500000 
22.500000 -31.500000 319.500000 
31.500000 -22.500000 310.500000 
31.500000 -31.500000 319.500000 
22.500000 -22.500000 319.500000 
31.500000 -22.500000 319.500000 
4.500000 -13.500000 310.500000 
13.500000 -13.500000 310.500000 
4.500000 -4.500000 310.500000 
4.500000 -13.500000 319.500000 
13.500000 -4.500000 310.500000 
13.500000 -13.500000 319.500000 
4.500000 -4.500000 319.500000 
13.500000 -4.500000 319.500000 
22.500000 -13.500000 310.500000 
31.500000 -13.500000 310.500000 
22.500000 -4.500000 310.500000 
22.500000 -13.500000 319.500000 
31.500000 -4.500000 310.500000 
31.500000 -13.500000 319.500000 
22.500000 -4.500000 319.500000 
31.500000 -4.500000 319.500000 
31.500000 -58.500000 328.500000 
22.500000 -58.500000 337.500000 
31.500000 -58.500000 337.500000 
13.500000 -49.500000 328.500000 
4.500000 -40.500000 328.500000 
13.500000 -40.500000 328.500000 
13.500000 -49.500000 337.500000 
4.500000 -40.500000 337.500000 
13.500000 -40.500000 337.500000 
13.500000 -58.500000 346.500000 
4.500000 -58.500000 355.500000 
13.500000 -58.500000 355.500000 
22.500000 -49.500000 328.500000 
31.500000 -49.500000 328.500000 
22.500000 -40.500000 328.500000 
22.500000 -49.500000 337.500000 
31.500000 -40.500000 328.500000 
31.500000 -49.500000 337.500000 
22.500000 -40.500000 337.500000 
31.500000 -40.500000 337.500000 
31.500000 -67.500000 346.500000 
22.500000 -58.500000 346.500000 
22.500000 -67.500000 355.500000 
31.500000 -58.500000 346.500000 
31.500000 -67.500000 355.500000 
22.500000 -58.500000 355.500000 
31.500000 -58.500000 355.500000 
4.500000 -49.500000 346.500000 
13.500000 -49.500000 346.500000 
4.500000 -40.500000 346.500000 
4.500000 -49.500000 355.500000 
13.500000 -40.500000 346.500000 
13.500000 -49.500000 355.500000 
4.500000 -40.500000 355.500000 
13.500000 -40.500000 355.500000 
22.500000 -49.500000 346.500000 
31.500000 -49.500000 346.500000 
22.500000 -40.500000 346.500000 
22.500000 -49.500000 355.500000 
31.500000 -40.500000 346.500000 
31.500000 -49.500000 355.500000 
22.500000 -40.500000 355.500000 
31.500000 -40.500000 355.500000 
40.500000 -31.500000 292.500000 
49.500000 -31.500000 292.500000 
40.500000 -22.500000 292.500000 
40.500000 -31.500000 301.500000 
49.500000 -31.500000 301.500000 
40.500000 -22.500000 301.500000 
49.500000 -22.500000 301.500000 
58.500000 -31.500000 301.500000 
40.500000 -13.500000 292.500000 
40.500000 -4.500000 292.500000 
40.500000 -13.500000 301.500000 
49.500000 -13.500000 301.500000 
40.500000 -4.500000 301.500000 
40.500000 -31.500000 310.500000 
49.500000 -31.500000 310.500000 
40.500000 -22.500000 310.500000 
40.500000 -31.500000 319.500000 
49.500000 -22.500000 310.500000 
49.500000 -31.500000 319.500000 
40.500000 -22.500000 319.500000 
49.500000 -22.500000 319.500000 
58.500000 -31.500000 310.500000 
67.500000 -31.500000 310.500000 
58.500000 -22.500000 310.500000 
58.500000 -31.500000 319.500000 
67.500000 -31.500000 319.500000 
58.500000 -22.500000 319.500000 
40.500000 -13.500000 310.500000 
49.500000 -13.500000 310.500000 
40.500000 -4.500000 310.500000 
40.500000 -13.500000 319.500000 
49.500000 -4.500000 310.500000 
49.500000 -13.500000 319.500000 
40.500000 -4.500000 319.500000 
49.500000 -4.500000 319.500000 
58.500000 -13.500000 319.500000 
40.500000 -58.500000 328.500000 
49.500000 -58.500000 328.500000 
40.500000 -58.500000 337.500000 
49.500000 -58.500000 337.500000 
40.500000 -49.500000 328.500000 
49.500000 -49.500000 328.500000 
40.500000 -40.500000 328.500000 
40.500000 -49.500000 337.500000 
49.500000 -40.500000 328.500000 
49.500000 -49.500000 337.500000 
40.500000 -40.500000 337.500000 
49.500000 -40.500000 337.500000 
40.500000 -58.500000 346.500000 
49.500000 -58.500000 346.500000 
40.500000 -58.500000 355.500000 
49.500000 -58.500000 355.500000 
58.500000 -49.500000 328.500000 
58.500000 -40.500000 328.500000 
58.500000 -49.500000 337.500000 
67.500000 -40.500000 328.500000 
67.500000 -49.500000 337.500000 
58.500000 -40.500000 337.500000 
67.500000 -40.500000 337.500000 
40.500000 -49.500000 346.500000 
49.500000 -49.500000 346.500000 
40.500000 -40.500000 346.500000 
40.500000 -49.500000 355.500000 
49.500000 -40.500000 346.500000 
49.500000 -49.500000 355.500000 
40.500000 -40.500000 355.500000 
49.500000 -40.500000 355.500000 
58.500000 -49.500000 346.500000 
67.500000 -49.500000 346.500000 
58.500000 -40.500000 346.500000 
58.500000 -49.500000 355.500000 
67.500000 -40.500000 346.500000 
67.500000 -49.500000 355.500000 
58.500000 -40.500000 355.500000 
67.500000 -40.500000 355.500000 
4.500000 -31.500000 328.500000 
13.500000 -31.500000 328.500000 
4.500000 -22.500000 328.500000 
4.500000 -31.500000 337.500000 
13.500000 -22.500000 328.500000 
13.500000 -31.500000 337.500000 
4.500000 -22.500000 337.500000 
13.500000 -22.500000 337.500000 
22.500000 -31.500000 328.500000 
31.500000 -31.500000 328.500000 
22.500000 -22.500000 328.500000 
22.500000 -31.500000 337.500000 
31.500000 -22.500000 328.500000 
31.500000 -31.500000 337.500000 
22.500000 -22.500000 337.500000 
31.500000 -22.500000 337.500000 
4.500000 -13.500000 328.500000 
13.500000 -13.500000 328.500000 
4.500000 -4.500000 328.500000 
4.500000 -13.500000 337.500000 
13.500000 -4.500000 328.500000 
13.500000 -13.500000 337.500000 
4.500000 -4.500000 337.500000 
13.500000 -4.500000 337.500000 
4.500000 -31.500000 346.500000 
13.500000 -31.500000 346.500000 
4.500000 -22.500000 346.500000 
4.500000 -31.500000 355.500000 
13.500000 -22.500000 346.500000 
13.500000 -31.500000 355.500000 
4.500000 -22.500000 355.500000 
13.500000 -22.500000 355.500000 
22.500000 -13.500000 328.500000 
31.500000 -13.500000 328.500000 
22.500000 -4.500000 328.500000 
22.500000 -13.500000 337.500000 
31.500000 -4.500000 328.500000 
31.500000 -13.500000 337.500000 
22.500000 -4.500000 337.500000 
31.500000 -4.500000 337.500000 
22.500000 -31.500000 346.500000 
31.500000 -31.500000 346.500000 
22.500000 -22.500000 346.500000 
22.500000 -31.500000 355.500000 
31.500000 -22.500000 346.500000 
31.500000 -31.500000 355.500000 
22.500000 -22.500000 355.500000 
31.500000 -22.500000 355.500000 
4.500000 -13.500000 346.500000 
13.500000 -13.500000 346.500000 
4.500000 -4.500000 346.500000 
4.500000 -13.500000 355.500000 
13.500000 -4.500000 346.500000 
13.500000 -13.500000 355.500000 
4.500000 -4.500000 355.500000 
13.500000 -4.500000 355.500000 
22.500000 -13.500000 346.500000 
31.500000 -13.500000 346.500000 
22.500000 -4.500000 346.500000 
22.500000 -13.500000 355.500000 
31.500000 -4.500000 346.500000 
31.500000 -13.500000 355.500000 
22.500000 -4.500000 355.500000 
31.500000 -4.500000 355.500000 
40.500000 -31.500000 328.500000 
49.500000 -31.500000 328.500000 
40.500000 -22.500000 328.500000 
40.500000 -31.500000 337.500000 
49.500000 -22.500000 328.500000 
49.500000 -31.500000 337.500000 
40.500000 -22.500000 337.500000 
49.500000 -22.500000 337.500000 
58.500000 -31.500000 328.500000 
67.500000 -31.500000 328.500000 
58.500000 -22.500000 328.500000 
58.500000 -31.500000 337.500000 
67.500000 -22.500000 328.500000 
67.500000 -31.500000 337.500000 
58.500000 -22.500000 337.500000 
67.500000 -22.500000 337.500000 
40.500000 -13.500000 328.500000 
49.500000 -13.500000 328.500000 
40.500000 -4.500000 328.500000 
40.500000 -13.500000 337.500000 
49.500000 -4.500000 328.500000 
49.500000 -13.500000 337.500000 
40.500000 -4.500000 337.500000 
49.500000 -4.500000 337.500000 
40.500000 -31.500000 346.500000 
49.500000 -31.500000 346.500000 
40.500000 -22.500000 346.500000 
40.500000 -31.500000 355.500000 
49.500000 -22.500000 346.500000 
49.500000 -31.500000 355.500000 
40.500000 -22.500000 355.500000 
49.500000 -22.500000 355.500000 
58.500000 -13.500000 328.500000 
58.500000 -4.500000 328.500000 
58.500000 -13.500000 337.500000 
67.500000 -13.500000 337.500000 
58.500000 -4.500000 337.500000 
58.500000 -31.500000 346.500000 
67.500000 -31.500000 346.500000 
58.500000 -22.500000 346.500000 
58.500000 -31.500000 355.500000 
67.500000 -22.500000 346.500000 
67.500000 -31.500000 355.500000 
58.500000 -22.500000 355.500000 
67.500000 -22.500000 355.500000 
40.500000 -13.500000 346.500000 
49.500000 -13.500000 346.500000 
40.500000 -4.500000 346.500000 
40.500000 -13.500000 355.500000 
49.500000 -4.500000 346.500000 
49.500000 -13.500000 355.500000 
40.500000 -4.500000 355.500000 
49.500000 -4.500000 355.500000 
58.500000 -13.500000 346.500000 
67.500000 -13.500000 346.500000 
58.500000 -4.500000 346.500000 
58.500000 -13.500000 355.500000 
67.500000 -4.500000 346.500000 
67.500000 -13.500000 355.500000 
58.500000 -4.500000 355.500000 
67.500000 -4.500000 355.500000 
4.500000 -76.500000 391.500000 
13.500000 -76.500000 391.500000 
22.500000 -76.500000 391.500000 
13.500000 -112.500000 427.500000 
22.500000 -121.500000 427.500000 
31.500000 -121.500000 427.500000 
22.500000 -112.500000 427.500000 
31.500000 -112.500000 427.500000 
40.500000 -121.500000 427.500000 
49.500000 -121.500000 427.500000 
40.500000 -112.500000 427.500000 
49.500000 -112.500000 427.500000 
58.500000 -112.500000 427.500000 
4.500000 -94.500000 409.500000 
4.500000 -85.500000 400.500000 
13.500000 -85.500000 400.500000 
4.500000 -76.500000 400.500000 
13.500000 -76.500000 400.500000 
4.500000 -76.500000 409.500000 
13.500000 -76.500000 409.500000 
4.500000 -94.500000 418.500000 
13.500000 -103.500000 427.500000 
4.500000 -94.500000 427.500000 
13.500000 -94.500000 427.500000 
22.500000 -76.500000 400.500000 
31.500000 -76.500000 400.500000 
22.500000 -76.500000 409.500000 
31.500000 -76.500000 409.500000 
22.500000 -103.500000 427.500000 
31.500000 -103.500000 427.500000 
31.500000 -94.500000 427.500000 
4.500000 -76.500000 418.500000 
13.500000 -76.500000 418.500000 
4.500000 -76.500000 427.500000 
13.500000 -76.500000 427.500000 
22.500000 -76.500000 418.500000 
31.500000 -76.500000 418.500000 
22.500000 -76.500000 427.500000 
31.500000 -76.500000 427.500000 
40.500000 -103.500000 427.500000 
49.500000 -103.500000 427.500000 
58.500000 -103.500000 427.500000 
40.500000 -76.500000 418.500000 
40.500000 -76.500000 427.500000 
58.500000 -76.500000 427.500000 
76.500000 -40.500000 346.500000 
76.500000 -40.500000 355.500000 
85.500000 -40.500000 355.500000 
76.500000 -31.500000 346.500000 
76.500000 -22.500000 346.500000 
76.500000 -31.500000 355.500000 
85.500000 -31.500000 355.500000 
76.500000 -22.500000 355.500000 
85.500000 -22.500000 355.500000 
94.500000 -31.500000 355.500000 
76.500000 -13.500000 355.500000 
85.500000 -13.500000 355.500000 
76.500000 -4.500000 355.500000 
85.500000 -4.500000 355.500000 
76.500000 -103.500000 427.500000 
85.500000 -76.500000 427.500000 
94.500000 -76.500000 427.500000 
13.500000 -67.500000 364.500000 
4.500000 -58.500000 364.500000 
13.500000 -58.500000 364.500000 
13.500000 -67.500000 373.500000 
4.500000 -58.500000 373.500000 
13.500000 -58.500000 373.500000 
22.500000 -67.500000 364.500000 
31.500000 -67.500000 364.500000 
22.500000 -58.500000 364.500000 
22.500000 -67.500000 373.500000 
31.500000 -58.500000 364.500000 
31.500000 -67.500000 373.500000 
22.500000 -58.500000 373.500000 
31.500000 -58.500000 373.500000 
4.500000 -49.500000 364.500000 
13.500000 -49.500000 364.500000 
4.500000 -40.500000 364.500000 
4.500000 -49.500000 373.500000 
13.500000 -40.500000 364.500000 
13.500000 -49.500000 373.500000 
4.500000 -40.500000 373.500000 
13.500000 -40.500000 373.500000 
13.500000 -67.500000 382.500000 
4.500000 -58.500000 382.500000 
4.500000 -67.500000 391.500000 
13.500000 -58.500000 382.500000 
13.500000 -67.500000 391.500000 
4.500000 -58.500000 391.500000 
13.500000 -58.500000 391.500000 
22.500000 -49.500000 364.500000 
31.500000 -49.500000 364.500000 
22.500000 -40.500000 364.500000 
22.500000 -49.500000 373.500000 
31.500000 -40.500000 364.500000 
31.500000 -49.500000 373.500000 
22.500000 -40.500000 373.500000 
31.500000 -40.500000 373.500000 
22.500000 -67.500000 382.500000 
22.500000 -58.500000 382.500000 
22.500000 -67.500000 391.500000 
31.500000 -58.500000 382.500000 
31.500000 -67.500000 391.500000 
22.500000 -58.500000 391.500000 
31.500000 -58.500000 391.500000 
4.500000 -49.500000 382.500000 
13.500000 -49.500000 382.500000 
4.500000 -40.500000 382.500000 
4.500000 -49.500000 391.500000 
13.500000 -40.500000 382.500000 
13.500000 -49.500000 391.500000 
4.500000 -40.500000 391.500000 
13.500000 -40.500000 391.500000 
22.500000 -49.500000 382.500000 
31.500000 -49.500000 382.500000 
22.500000 -40.500000 382.500000 
22.500000 -49.500000 391.500000 
31.500000 -40.500000 382.500000 
31.500000 -49.500000 391.500000 
22.500000 -40.500000 391.500000 
31.500000 -40.500000 391.500000 
40.500000 -58.500000 364.500000 
49.500000 -58.500000 364.500000 
40.500000 -58.500000 373.500000 
40.500000 -49.500000 364.500000 
49.500000 -49.500000 364.500000 
40.500000 -40.500000 364.500000 
40.500000 -49.500000 373.500000 
49.500000 -40.500000 364.500000 
40.500000 -40.500000 373.500000 
40.500000 -58.500000 382.500000 
40.500000 -67.500000 391.500000 
40.500000 -58.500000 391.500000 
49.500000 -58.500000 391.500000 
58.500000 -49.500000 364.500000 
58.500000 -40.500000 364.500000 
58.500000 -49.500000 373.500000 
67.500000 -40.500000 364.500000 
58.500000 -40.500000 373.500000 
40.500000 -49.500000 382.500000 
40.500000 -40.500000 382.500000 
40.500000 -49.500000 391.500000 
49.500000 -49.500000 391.500000 
40.500000 -40.500000 391.500000 
49.500000 -40.500000 391.500000 
58.500000 -49.500000 382.500000 
58.500000 -40.500000 382.500000 
67.500000 -49.500000 391.500000 
67.500000 -40.500000 391.500000 
4.500000 -31.500000 364.500000 
13.500000 -31.500000 364.500000 
4.500000 -22.500000 364.500000 
4.500000 -31.500000 373.500000 
13.500000 -22.500000 364.500000 
13.500000 -31.500000 373.500000 
4.500000 -22.500000 373.500000 
13.500000 -22.500000 373.500000 
22.500000 -31.500000 364.500000 
31.500000 -31.500000 364.500000 
22.500000 -22.500000 364.500000 
22.500000 -31.500000 373.500000 
31.500000 -22.500000 364.500000 
31.500000 -31.500000 373.500000 
22.500000 -22.500000 373.500000 
31.500000 -22.500000 373.500000 
4.500000 -13.500000 364.500000 
13.500000 -13.500000 364.500000 
4.500000 -4.500000 364.500000 
4.500000 -13.500000 373.500000 
13.500000 -4.500000 364.500000 
13.500000 -13.500000 373.500000 
4.500000 -4.500000 373.500000 
13.500000 -4.500000 373.500000 
4.500000 -31.500000 382.500000 
13.500000 -31.500000 382.500000 
4.500000 -22.500000 382.500000 
4.500000 -31.500000 391.500000 
13.500000 -22.500000 382.500000 
13.500000 -31.500000 391.500000 
4.500000 -22.500000 391.500000 
13.500000 -22.500000 391.500000 
22.500000 -13.500000 364.500000 
31.500000 -13.500000 364.500000 
22.500000 -4.500000 364.500000 
22.500000 -13.500000 373.500000 
31.500000 -4.500000 364.500000 
31.500000 -13.500000 373.500000 
22.500000 -4.500000 373.500000 
31.500000 -4.500000 373.500000 
22.500000 -31.500000 382.500000 
31.500000 -31.500000 382.500000 
22.500000 -22.500000 382.500000 
22.500000 -31.500000 391.500000 
31.500000 -22.500000 382.500000 
31.500000 -31.500000 391.500000 
22.500000 -22.500000 391.500000 
31.500000 -22.500000 391.500000 
4.500000 -13.500000 382.500000 
13.500000 -13.500000 382.500000 
4.500000 -4.500000 382.500000 
4.500000 -13.500000 391.500000 
13.500000 -4.500000 382.500000 
13.500000 -13.500000 391.500000 
4.500000 -4.500000 391.500000 
13.500000 -4.500000 391.500000 
22.500000 -13.500000 382.500000 
31.500000 -13.500000 382.500000 
22.500000 -4.500000 382.500000 
22.500000 -13.500000 391.500000 
31.500000 -4.500000 382.500000 
31.500000 -13.500000 391.500000 
22.500000 -4.500000 391.500000 
31.500000 -4.500000 391.500000 
4.500000 -67.500000 400.500000 
13.500000 -67.500000 400.500000 
4.500000 -58.500000 400.500000 
4.500000 -67.500000 409.500000 
13.500000 -58.500000 400.500000 
13.500000 -67.500000 409.500000 
4.500000 -58.500000 409.500000 
13.500000 -58.500000 409.500000 
22.500000 -67.500000 400.500000 
31.500000 -67.500000 400.500000 
22.500000 -58.500000 400.500000 
22.500000 -67.500000 409.500000 
31.500000 -58.500000 400.500000 
31.500000 -67.500000 409.500000 
22.500000 -58.500000 409.500000 
31.500000 -58.500000 409.500000 
4.500000 -49.500000 400.500000 
13.500000 -49.500000 400.500000 
4.500000 -40.500000 400.500000 
4.500000 -49.500000 409.500000 
13.500000 -40.500000 400.500000 
13.500000 -49.500000 409.500000 
4.500000 -40.500000 409.500000 
13.500000 -40.500000 409.500000 
4.500000 -67.500000 418.500000 
13.500000 -67.500000 418.500000 
4.500000 -58.500000 418.500000 
4.500000 -67.500000 427.500000 
13.500000 -58.500000 418.500000 
13.500000 -67.500000 427.500000 
4.500000 -58.500000 427.500000 
13.500000 -58.500000 427.500000 
22.500000 -49.500000 400.500000 
31.500000 -49.500000 400.500000 
22.500000 -40.500000 400.500000 
22.500000 -49.500000 409.500000 
31.500000 -40.500000 400.500000 
31.500000 -49.500000 409.500000 
22.500000 -40.500000 409.500000 
31.500000 -40.500000 409.500000 
22.500000 -67.500000 418.500000 
31.500000 -67.500000 418.500000 
22.500000 -58.500000 418.500000 
22.500000 -67.500000 427.500000 
31.500000 -58.500000 418.500000 
31.500000 -67.500000 427.500000 
22.500000 -58.500000 427.500000 
31.500000 -58.500000 427.500000 
4.500000 -49.500000 418.500000 
