-310.000000 -170.000000 70.000000 
-290.000000 -170.000000 70.000000 
-270.000000 -190.000000 50.000000 
-250.000000 -190.000000 50.000000 
-270.000000 -170.000000 50.000000 
-270.000000 -190.000000 70.000000 
-250.000000 -170.000000 50.000000 
-250.000000 -190.000000 70.000000 
-270.000000 -170.000000 70.000000 
-250.000000 -170.000000 70.000000 
-230.000000 -230.000000 50.000000 
-210.000000 -230.000000 50.000000 
-210.000000 -210.000000 50.000000 
-190.000000 -210.000000 50.000000 
-230.000000 -190.000000 50.000000 
-210.000000 -190.000000 50.000000 
-230.000000 -170.000000 50.000000 
-210.000000 -170.000000 50.000000 
-230.000000 -170.000000 70.000000 
-190.000000 -170.000000 50.000000 
-310.000000 -150.000000 50.000000 
-290.000000 -150.000000 50.000000 
-310.000000 -150.000000 70.000000 
-290.000000 -150.000000 70.000000 
-270.000000 -150.000000 50.000000 
-250.000000 -150.000000 50.000000 
-270.000000 -130.000000 50.000000 
-270.000000 -150.000000 70.000000 
-250.000000 -130.000000 50.000000 
-250.000000 -150.000000 70.000000 
-270.000000 -130.000000 70.000000 
-250.000000 -130.000000 70.000000 
-230.000000 -150.000000 50.000000 
-210.000000 -150.000000 50.000000 
-230.000000 -130.000000 50.000000 
-230.000000 -150.000000 70.000000 
-210.000000 -130.000000 50.000000 
-210.000000 -150.000000 70.000000 
-230.000000 -130.000000 70.000000 
-210.000000 -130.000000 70.000000 
-190.000000 -110.000000 30.000000 
-170.000000 -110.000000 30.000000 
-170.000000 -90.000000 30.000000 
-190.000000 -150.000000 50.000000 
-170.000000 -150.000000 50.000000 
-190.000000 -130.000000 50.000000 
-170.000000 -130.000000 50.000000 
-230.000000 -110.000000 50.000000 
-210.000000 -110.000000 50.000000 
-230.000000 -110.000000 70.000000 
-210.000000 -90.000000 50.000000 
-210.000000 -110.000000 70.000000 
-210.000000 -90.000000 70.000000 
-190.000000 -110.000000 50.000000 
-170.000000 -110.000000 50.000000 
-190.000000 -90.000000 50.000000 
-170.000000 -90.000000 50.000000 
-170.000000 -70.000000 30.000000 
-170.000000 -70.000000 50.000000 
-150.000000 -90.000000 10.000000 
-150.000000 -110.000000 30.000000 
-130.000000 -90.000000 10.000000 
-130.000000 -110.000000 30.000000 
-150.000000 -90.000000 30.000000 
-130.000000 -90.000000 30.000000 
-150.000000 -150.000000 50.000000 
-150.000000 -130.000000 50.000000 
-110.000000 -90.000000 10.000000 
-110.000000 -110.000000 30.000000 
-90.000000 -90.000000 10.000000 
-110.000000 -90.000000 30.000000 
-150.000000 -110.000000 50.000000 
-150.000000 -90.000000 50.000000 
-150.000000 -70.000000 10.000000 
-130.000000 -70.000000 10.000000 
-150.000000 -70.000000 30.000000 
-130.000000 -50.000000 10.000000 
-130.000000 -70.000000 30.000000 
-110.000000 -70.000000 10.000000 
-90.000000 -70.000000 10.000000 
-110.000000 -50.000000 10.000000 
-90.000000 -50.000000 10.000000 
-10.000000 -50.000000 170.000000 
-10.000000 -50.000000 190.000000 
-10.000000 -30.000000 170.000000 
-10.000000 -10.000000 170.000000 
-10.000000 -30.000000 190.000000 
-10.000000 -10.000000 190.000000 
-10.000000 -70.000000 210.000000 
-30.000000 -50.000000 210.000000 
-10.000000 -50.000000 210.000000 
-10.000000 -70.000000 230.000000 
-30.000000 -50.000000 230.000000 
-10.000000 -50.000000 230.000000 
-30.000000 -30.000000 210.000000 
-10.000000 -30.000000 210.000000 
-30.000000 -10.000000 210.000000 
-30.000000 -30.000000 230.000000 
-10.000000 -10.000000 210.000000 
-10.000000 -30.000000 230.000000 
-30.000000 -10.000000 230.000000 
-10.000000 -10.000000 230.000000 
-50.000000 -90.000000 270.000000 
-30.000000 -90.000000 270.000000 
-10.000000 -90.000000 270.000000 
-70.000000 -90.000000 290.000000 
-50.000000 -90.000000 290.000000 
-70.000000 -90.000000 310.000000 
-50.000000 -90.000000 310.000000 
-30.000000 -90.000000 290.000000 
-10.000000 -90.000000 290.000000 
-90.000000 -70.000000 290.000000 
-90.000000 -50.000000 290.000000 
-90.000000 -70.000000 310.000000 
-110.000000 -50.000000 310.000000 
-90.000000 -50.000000 310.000000 
-90.000000 -30.000000 290.000000 
-90.000000 -30.000000 310.000000 
-50.000000 -50.000000 250.000000 
-50.000000 -70.000000 270.000000 
-50.000000 -50.000000 270.000000 
-30.000000 -70.000000 250.000000 
-10.000000 -70.000000 250.000000 
-30.000000 -50.000000 250.000000 
-30.000000 -70.000000 270.000000 
-10.000000 -50.000000 250.000000 
-10.000000 -70.000000 270.000000 
-30.000000 -50.000000 270.000000 
-10.000000 -50.000000 270.000000 
-50.000000 -30.000000 250.000000 
-70.000000 -30.000000 270.000000 
-50.000000 -10.000000 250.000000 
-50.000000 -30.000000 270.000000 
-50.000000 -10.000000 270.000000 
-70.000000 -70.000000 290.000000 
-50.000000 -70.000000 290.000000 
-70.000000 -50.000000 290.000000 
-70.000000 -70.000000 310.000000 
-50.000000 -50.000000 290.000000 
-50.000000 -70.000000 310.000000 
-70.000000 -50.000000 310.000000 
-50.000000 -50.000000 310.000000 
-30.000000 -30.000000 250.000000 
-10.000000 -30.000000 250.000000 
-30.000000 -10.000000 250.000000 
-30.000000 -30.000000 270.000000 
-10.000000 -10.000000 250.000000 
-10.000000 -30.000000 270.000000 
-30.000000 -10.000000 270.000000 
-10.000000 -10.000000 270.000000 
-30.000000 -70.000000 290.000000 
-30.000000 -50.000000 290.000000 
-70.000000 -30.000000 290.000000 
-50.000000 -30.000000 290.000000 
-70.000000 -30.000000 310.000000 
-50.000000 -10.000000 290.000000 
-10.000000 -30.000000 290.000000 
-10.000000 -10.000000 290.000000 
-10.000000 -30.000000 310.000000 
-10.000000 -10.000000 310.000000 
-510.000000 -290.000000 330.000000 
-490.000000 -290.000000 330.000000 
-510.000000 -290.000000 350.000000 
-490.000000 -290.000000 350.000000 
-510.000000 -290.000000 370.000000 
-490.000000 -290.000000 370.000000 
-490.000000 -290.000000 390.000000 
-510.000000 -270.000000 370.000000 
-490.000000 -270.000000 370.000000 
-490.000000 -270.000000 390.000000 
-490.000000 -250.000000 390.000000 
-490.000000 -290.000000 410.000000 
-470.000000 -290.000000 350.000000 
-470.000000 -290.000000 370.000000 
-450.000000 -290.000000 370.000000 
-470.000000 -290.000000 390.000000 
-450.000000 -290.000000 390.000000 
-470.000000 -270.000000 370.000000 
-470.000000 -270.000000 390.000000 
-450.000000 -270.000000 390.000000 
-470.000000 -250.000000 390.000000 
-470.000000 -290.000000 410.000000 
-450.000000 -290.000000 410.000000 
-470.000000 -290.000000 430.000000 
-450.000000 -290.000000 430.000000 
-430.000000 -290.000000 430.000000 
-410.000000 -290.000000 430.000000 
-470.000000 -270.000000 410.000000 
-450.000000 -270.000000 410.000000 
-470.000000 -250.000000 410.000000 
-470.000000 -270.000000 430.000000 
-450.000000 -250.000000 410.000000 
-450.000000 -270.000000 430.000000 
-470.000000 -250.000000 430.000000 
-450.000000 -250.000000 430.000000 
-430.000000 -270.000000 410.000000 
-430.000000 -270.000000 430.000000 
-410.000000 -270.000000 430.000000 
-430.000000 -250.000000 430.000000 
-410.000000 -250.000000 430.000000 
-450.000000 -270.000000 450.000000 
-470.000000 -250.000000 450.000000 
-450.000000 -250.000000 450.000000 
-430.000000 -270.000000 450.000000 
-410.000000 -270.000000 450.000000 
-430.000000 -250.000000 450.000000 
-410.000000 -250.000000 450.000000 
-390.000000 -270.000000 430.000000 
-370.000000 -270.000000 430.000000 
-390.000000 -250.000000 430.000000 
-350.000000 -250.000000 430.000000 
-390.000000 -270.000000 450.000000 
-370.000000 -270.000000 450.000000 
-390.000000 -250.000000 450.000000 
-390.000000 -270.000000 470.000000 
-370.000000 -250.000000 450.000000 
-370.000000 -270.000000 470.000000 
-390.000000 -250.000000 470.000000 
-370.000000 -250.000000 470.000000 
-350.000000 -270.000000 450.000000 
-330.000000 -270.000000 450.000000 
-350.000000 -250.000000 450.000000 
-330.000000 -250.000000 450.000000 
-350.000000 -250.000000 470.000000 
-330.000000 -250.000000 470.000000 
-470.000000 -230.000000 430.000000 
-450.000000 -230.000000 430.000000 
-430.000000 -230.000000 430.000000 
-410.000000 -230.000000 430.000000 
-430.000000 -210.000000 430.000000 
-410.000000 -210.000000 430.000000 
-450.000000 -230.000000 450.000000 
-450.000000 -210.000000 450.000000 
-410.000000 -190.000000 430.000000 
-430.000000 -230.000000 450.000000 
-410.000000 -230.000000 450.000000 
-430.000000 -210.000000 450.000000 
-410.000000 -210.000000 450.000000 
-430.000000 -190.000000 450.000000 
-410.000000 -190.000000 450.000000 
-390.000000 -230.000000 430.000000 
-370.000000 -230.000000 430.000000 
-390.000000 -210.000000 430.000000 
-370.000000 -210.000000 430.000000 
-350.000000 -230.000000 430.000000 
-390.000000 -190.000000 430.000000 
-370.000000 -190.000000 430.000000 
-370.000000 -170.000000 430.000000 
-390.000000 -230.000000 450.000000 
-370.000000 -230.000000 450.000000 
-390.000000 -210.000000 450.000000 
-390.000000 -230.000000 470.000000 
-370.000000 -210.000000 450.000000 
-370.000000 -230.000000 470.000000 
-370.000000 -210.000000 470.000000 
-350.000000 -190.000000 430.000000 
-350.000000 -170.000000 430.000000 
-350.000000 -230.000000 450.000000 
-330.000000 -230.000000 450.000000 
-350.000000 -210.000000 450.000000 
-350.000000 -230.000000 470.000000 
-330.000000 -210.000000 450.000000 
-330.000000 -230.000000 470.000000 
-350.000000 -210.000000 470.000000 
-330.000000 -210.000000 470.000000 
-390.000000 -190.000000 450.000000 
-370.000000 -190.000000 450.000000 
-390.000000 -170.000000 450.000000 
-370.000000 -170.000000 450.000000 
-370.000000 -190.000000 470.000000 
-350.000000 -190.000000 450.000000 
-330.000000 -190.000000 450.000000 
-350.000000 -170.000000 450.000000 
-350.000000 -190.000000 470.000000 
-330.000000 -170.000000 450.000000 
-330.000000 -190.000000 470.000000 
-350.000000 -170.000000 470.000000 
-330.000000 -170.000000 470.000000 
-490.000000 -190.000000 590.000000 
-490.000000 -190.000000 610.000000 
-490.000000 -190.000000 630.000000 
-370.000000 -150.000000 450.000000 
-350.000000 -150.000000 450.000000 
-330.000000 -150.000000 450.000000 
-330.000000 -130.000000 450.000000 
-330.000000 -150.000000 470.000000 
-470.000000 -190.000000 610.000000 
-470.000000 -190.000000 630.000000 
-450.000000 -190.000000 630.000000 
-470.000000 -170.000000 630.000000 
-450.000000 -170.000000 630.000000 
-430.000000 -170.000000 630.000000 
-450.000000 -150.000000 630.000000 
-430.000000 -150.000000 630.000000 
-290.000000 -270.000000 430.000000 
-310.000000 -250.000000 430.000000 
-290.000000 -250.000000 430.000000 
-310.000000 -270.000000 450.000000 
-290.000000 -270.000000 450.000000 
-310.000000 -250.000000 450.000000 
-290.000000 -250.000000 450.000000 
-270.000000 -250.000000 450.000000 
-250.000000 -250.000000 450.000000 
-190.000000 -170.000000 390.000000 
-170.000000 -170.000000 390.000000 
-230.000000 -250.000000 450.000000 
-190.000000 -250.000000 450.000000 
-310.000000 -230.000000 430.000000 
-290.000000 -230.000000 430.000000 
-310.000000 -210.000000 430.000000 
-290.000000 -210.000000 430.000000 
-270.000000 -230.000000 430.000000 
-250.000000 -230.000000 430.000000 
-270.000000 -210.000000 430.000000 
-250.000000 -210.000000 430.000000 
-310.000000 -190.000000 430.000000 
-290.000000 -190.000000 430.000000 
-310.000000 -230.000000 450.000000 
-290.000000 -230.000000 450.000000 
-310.000000 -210.000000 450.000000 
-310.000000 -230.000000 470.000000 
-290.000000 -210.000000 450.000000 
-310.000000 -210.000000 470.000000 
-270.000000 -230.000000 450.000000 
-250.000000 -230.000000 450.000000 
-270.000000 -210.000000 450.000000 
-250.000000 -210.000000 450.000000 
-310.000000 -190.000000 450.000000 
-290.000000 -190.000000 450.000000 
-310.000000 -170.000000 450.000000 
-310.000000 -190.000000 470.000000 
-290.000000 -170.000000 450.000000 
-290.000000 -190.000000 470.000000 
-310.000000 -170.000000 470.000000 
-290.000000 -170.000000 470.000000 
-270.000000 -190.000000 450.000000 
-250.000000 -190.000000 450.000000 
-270.000000 -170.000000 450.000000 
-250.000000 -170.000000 450.000000 
-270.000000 -170.000000 470.000000 
-210.000000 -170.000000 410.000000 
-210.000000 -190.000000 430.000000 
-230.000000 -170.000000 430.000000 
-210.000000 -170.000000 430.000000 
-230.000000 -230.000000 450.000000 
-210.000000 -230.000000 450.000000 
-230.000000 -210.000000 450.000000 
-210.000000 -210.000000 450.000000 
-190.000000 -170.000000 410.000000 
-190.000000 -170.000000 430.000000 
-190.000000 -230.000000 450.000000 
-230.000000 -190.000000 450.000000 
-210.000000 -190.000000 450.000000 
-230.000000 -170.000000 450.000000 
-210.000000 -170.000000 450.000000 
-190.000000 -190.000000 450.000000 
-150.000000 -170.000000 390.000000 
-130.000000 -170.000000 390.000000 
-190.000000 -150.000000 390.000000 
-170.000000 -150.000000 390.000000 
-190.000000 -130.000000 390.000000 
-170.000000 -130.000000 390.000000 
-190.000000 -110.000000 390.000000 
-170.000000 -90.000000 370.000000 
-170.000000 -110.000000 390.000000 
-190.000000 -90.000000 390.000000 
-170.000000 -90.000000 390.000000 
-250.000000 -150.000000 430.000000 
-250.000000 -130.000000 430.000000 
-310.000000 -150.000000 450.000000 
-290.000000 -150.000000 450.000000 
-310.000000 -130.000000 450.000000 
-310.000000 -150.000000 470.000000 
-290.000000 -130.000000 450.000000 
-290.000000 -150.000000 470.000000 
-310.000000 -130.000000 470.000000 
-290.000000 -130.000000 470.000000 
-250.000000 -110.000000 430.000000 
-250.000000 -90.000000 430.000000 
-270.000000 -150.000000 450.000000 
-250.000000 -150.000000 450.000000 
-270.000000 -130.000000 450.000000 
-270.000000 -150.000000 470.000000 
-250.000000 -130.000000 450.000000 
-250.000000 -150.000000 470.000000 
-270.000000 -130.000000 470.000000 
-250.000000 -130.000000 470.000000 
-290.000000 -110.000000 450.000000 
-270.000000 -110.000000 450.000000 
-250.000000 -110.000000 450.000000 
-270.000000 -90.000000 450.000000 
-170.000000 -70.000000 370.000000 
-190.000000 -70.000000 390.000000 
-170.000000 -70.000000 390.000000 
-210.000000 -150.000000 410.000000 
-230.000000 -130.000000 410.000000 
-230.000000 -150.000000 430.000000 
-210.000000 -130.000000 410.000000 
-210.000000 -150.000000 430.000000 
-230.000000 -130.000000 430.000000 
-210.000000 -130.000000 430.000000 
-190.000000 -150.000000 410.000000 
-170.000000 -150.000000 410.000000 
-190.000000 -130.000000 410.000000 
-190.000000 -150.000000 430.000000 
-170.000000 -130.000000 410.000000 
-190.000000 -130.000000 430.000000 
-170.000000 -130.000000 430.000000 
-230.000000 -110.000000 410.000000 
-210.000000 -110.000000 410.000000 
-230.000000 -110.000000 430.000000 
-210.000000 -90.000000 410.000000 
-210.000000 -110.000000 430.000000 
-230.000000 -90.000000 430.000000 
-230.000000 -150.000000 450.000000 
-210.000000 -150.000000 450.000000 
-230.000000 -130.000000 450.000000 
-210.000000 -130.000000 450.000000 
-190.000000 -110.000000 410.000000 
-170.000000 -110.000000 410.000000 
-190.000000 -90.000000 410.000000 
-190.000000 -110.000000 430.000000 
-170.000000 -90.000000 410.000000 
-230.000000 -110.000000 450.000000 
-190.000000 -70.000000 410.000000 
-170.000000 -70.000000 410.000000 
-110.000000 -130.000000 350.000000 
-90.000000 -130.000000 350.000000 
-130.000000 -110.000000 350.000000 
-150.000000 -90.000000 350.000000 
-130.000000 -90.000000 350.000000 
-150.000000 -150.000000 390.000000 
-130.000000 -150.000000 390.000000 
-150.000000 -130.000000 390.000000 
-130.000000 -130.000000 390.000000 
-110.000000 -110.000000 330.000000 
-90.000000 -110.000000 330.000000 
-110.000000 -90.000000 330.000000 
-110.000000 -110.000000 350.000000 
-90.000000 -90.000000 330.000000 
-90.000000 -110.000000 350.000000 
-110.000000 -90.000000 350.000000 
-90.000000 -90.000000 350.000000 
-110.000000 -130.000000 370.000000 
-110.000000 -150.000000 390.000000 
-110.000000 -130.000000 390.000000 
-150.000000 -110.000000 370.000000 
-130.000000 -110.000000 370.000000 
-150.000000 -90.000000 370.000000 
-150.000000 -110.000000 390.000000 
-130.000000 -90.000000 370.000000 
-130.000000 -110.000000 390.000000 
-150.000000 -90.000000 390.000000 
-130.000000 -90.000000 390.000000 
-110.000000 -110.000000 370.000000 
-90.000000 -110.000000 370.000000 
-110.000000 -90.000000 370.000000 
-110.000000 -110.000000 390.000000 
-110.000000 -90.000000 390.000000 
-70.000000 -110.000000 330.000000 
-50.000000 -110.000000 330.000000 
-70.000000 -90.000000 330.000000 
-50.000000 -90.000000 330.000000 
-150.000000 -70.000000 350.000000 
-130.000000 -70.000000 350.000000 
-130.000000 -50.000000 350.000000 
-110.000000 -70.000000 330.000000 
-90.000000 -70.000000 330.000000 
-110.000000 -50.000000 330.000000 
-110.000000 -70.000000 350.000000 
-90.000000 -50.000000 330.000000 
-90.000000 -70.000000 350.000000 
-110.000000 -50.000000 350.000000 
-90.000000 -50.000000 350.000000 
-150.000000 -70.000000 370.000000 
-130.000000 -70.000000 370.000000 
-150.000000 -50.000000 370.000000 
-150.000000 -70.000000 390.000000 
-130.000000 -50.000000 370.000000 
-110.000000 -30.000000 330.000000 
-110.000000 -30.000000 350.000000 
-110.000000 -70.000000 370.000000 
-150.000000 -130.000000 410.000000 
-150.000000 -110.000000 410.000000 
-150.000000 -90.000000 410.000000 
-70.000000 -70.000000 330.000000 
-50.000000 -70.000000 330.000000 
-70.000000 -50.000000 330.000000 
-10.000000 -50.000000 350.000000 
-10.000000 -30.000000 330.000000 
-10.000000 -10.000000 330.000000 
-10.000000 -30.000000 350.000000 
-10.000000 -10.000000 350.000000 
-10.000000 -50.000000 370.000000 
-10.000000 -70.000000 390.000000 
-30.000000 -50.000000 390.000000 
-10.000000 -50.000000 390.000000 
-30.000000 -30.000000 370.000000 
-10.000000 -30.000000 370.000000 
-30.000000 -10.000000 370.000000 
-30.000000 -30.000000 390.000000 
-10.000000 -10.000000 370.000000 
-10.000000 -30.000000 390.000000 
-30.000000 -10.000000 390.000000 
-10.000000 -10.000000 390.000000 
-50.000000 -90.000000 430.000000 
-30.000000 -90.000000 410.000000 
-10.000000 -90.000000 410.000000 
-10.000000 -110.000000 430.000000 
-30.000000 -90.000000 430.000000 
-10.000000 -90.000000 430.000000 
-50.000000 -90.000000 450.000000 
-70.000000 -90.000000 470.000000 
-50.000000 -90.000000 470.000000 
-30.000000 -110.000000 450.000000 
-10.000000 -110.000000 450.000000 
-30.000000 -90.000000 450.000000 
-10.000000 -90.000000 450.000000 
-30.000000 -90.000000 470.000000 
-10.000000 -90.000000 470.000000 
-90.000000 -50.000000 470.000000 
-90.000000 -30.000000 470.000000 
-90.000000 -10.000000 470.000000 
-50.000000 -70.000000 430.000000 
-50.000000 -50.000000 430.000000 
-30.000000 -70.000000 410.000000 
-10.000000 -70.000000 410.000000 
-30.000000 -50.000000 410.000000 
-30.000000 -70.000000 430.000000 
-10.000000 -50.000000 410.000000 
-10.000000 -70.000000 430.000000 
-30.000000 -50.000000 430.000000 
-10.000000 -50.000000 430.000000 
-50.000000 -30.000000 410.000000 
-50.000000 -10.000000 410.000000 
-50.000000 -30.000000 430.000000 
-50.000000 -10.000000 430.000000 
-70.000000 -70.000000 450.000000 
-50.000000 -70.000000 450.000000 
-70.000000 -50.000000 450.000000 
-70.000000 -70.000000 470.000000 
-50.000000 -50.000000 450.000000 
-50.000000 -70.000000 470.000000 
-70.000000 -50.000000 470.000000 
-50.000000 -50.000000 470.000000 
-30.000000 -30.000000 410.000000 
-10.000000 -30.000000 410.000000 
-30.000000 -10.000000 410.000000 
-30.000000 -30.000000 430.000000 
-10.000000 -10.000000 410.000000 
-10.000000 -30.000000 430.000000 
-30.000000 -10.000000 430.000000 
-10.000000 -10.000000 430.000000 
-30.000000 -70.000000 450.000000 
-10.000000 -70.000000 450.000000 
-30.000000 -50.000000 450.000000 
-30.000000 -70.000000 470.000000 
-10.000000 -50.000000 450.000000 
-10.000000 -70.000000 470.000000 
-30.000000 -50.000000 470.000000 
-10.000000 -50.000000 470.000000 
-70.000000 -30.000000 450.000000 
-50.000000 -30.000000 450.000000 
-70.000000 -10.000000 450.000000 
-70.000000 -30.000000 470.000000 
-50.000000 -10.000000 450.000000 
-50.000000 -30.000000 470.000000 
-70.000000 -10.000000 470.000000 
-50.000000 -10.000000 470.000000 
-30.000000 -30.000000 450.000000 
-10.000000 -30.000000 450.000000 
-30.000000 -10.000000 450.000000 
-30.000000 -30.000000 470.000000 
-10.000000 -10.000000 450.000000 
-10.000000 -30.000000 470.000000 
-30.000000 -10.000000 470.000000 
-10.000000 -10.000000 470.000000 
-110.000000 -250.000000 630.000000 
-90.000000 -250.000000 630.000000 
-110.000000 -230.000000 630.000000 
-110.000000 -170.000000 610.000000 
-90.000000 -170.000000 610.000000 
-110.000000 -170.000000 630.000000 
-50.000000 -170.000000 610.000000 
-70.000000 -170.000000 630.000000 
-50.000000 -170.000000 630.000000 
-10.000000 -190.000000 610.000000 
-30.000000 -170.000000 630.000000 
-10.000000 -170.000000 630.000000 
-170.000000 -110.000000 590.000000 
-170.000000 -90.000000 590.000000 
-190.000000 -130.000000 610.000000 
-190.000000 -150.000000 630.000000 
-170.000000 -130.000000 610.000000 
-190.000000 -130.000000 630.000000 
-170.000000 -130.000000 630.000000 
-190.000000 -110.000000 610.000000 
-170.000000 -110.000000 610.000000 
-190.000000 -90.000000 610.000000 
-190.000000 -110.000000 630.000000 
-170.000000 -90.000000 610.000000 
-170.000000 -110.000000 630.000000 
-190.000000 -90.000000 630.000000 
-170.000000 -90.000000 630.000000 
-170.000000 -70.000000 590.000000 
-170.000000 -50.000000 590.000000 
-210.000000 -50.000000 630.000000 
-170.000000 -30.000000 590.000000 
-190.000000 -70.000000 610.000000 
-170.000000 -70.000000 610.000000 
-190.000000 -50.000000 610.000000 
-190.000000 -70.000000 630.000000 
-170.000000 -50.000000 610.000000 
-170.000000 -70.000000 630.000000 
-190.000000 -50.000000 630.000000 
-170.000000 -50.000000 630.000000 
-90.000000 -90.000000 510.000000 
-110.000000 -110.000000 530.000000 
-90.000000 -110.000000 530.000000 
-110.000000 -90.000000 530.000000 
-110.000000 -110.000000 550.000000 
-90.000000 -90.000000 530.000000 
-90.000000 -110.000000 550.000000 
-110.000000 -90.000000 550.000000 
-90.000000 -90.000000 550.000000 
-10.000000 -150.000000 510.000000 
-70.000000 -90.000000 490.000000 
-50.000000 -90.000000 490.000000 
-70.000000 -90.000000 510.000000 
-50.000000 -90.000000 510.000000 
-30.000000 -90.000000 490.000000 
-10.000000 -90.000000 490.000000 
-30.000000 -90.000000 510.000000 
-10.000000 -90.000000 510.000000 
-70.000000 -110.000000 530.000000 
-50.000000 -110.000000 530.000000 
-70.000000 -90.000000 530.000000 
-70.000000 -110.000000 550.000000 
-50.000000 -90.000000 530.000000 
-50.000000 -110.000000 550.000000 
-70.000000 -90.000000 550.000000 
-50.000000 -90.000000 550.000000 
-30.000000 -110.000000 530.000000 
-10.000000 -110.000000 530.000000 
-30.000000 -90.000000 530.000000 
-30.000000 -110.000000 550.000000 
-10.000000 -90.000000 530.000000 
-10.000000 -110.000000 550.000000 
-30.000000 -90.000000 550.000000 
-10.000000 -90.000000 550.000000 
-90.000000 -70.000000 490.000000 
-110.000000 -50.000000 490.000000 
-110.000000 -70.000000 510.000000 
-90.000000 -50.000000 490.000000 
-90.000000 -70.000000 510.000000 
-110.000000 -50.000000 510.000000 
-90.000000 -50.000000 510.000000 
-110.000000 -30.000000 490.000000 
-90.000000 -30.000000 490.000000 
-110.000000 -30.000000 510.000000 
-90.000000 -10.000000 490.000000 
-90.000000 -30.000000 510.000000 
-110.000000 -10.000000 510.000000 
-90.000000 -10.000000 510.000000 
-110.000000 -70.000000 530.000000 
-90.000000 -70.000000 530.000000 
-110.000000 -50.000000 530.000000 
-110.000000 -70.000000 550.000000 
-90.000000 -50.000000 530.000000 
-90.000000 -70.000000 550.000000 
-110.000000 -50.000000 550.000000 
-90.000000 -50.000000 550.000000 
-110.000000 -30.000000 530.000000 
-90.000000 -30.000000 530.000000 
-110.000000 -10.000000 530.000000 
-110.000000 -30.000000 550.000000 
-90.000000 -10.000000 530.000000 
-90.000000 -30.000000 550.000000 
-110.000000 -10.000000 550.000000 
-90.000000 -10.000000 550.000000 
-150.000000 -130.000000 590.000000 
-130.000000 -130.000000 590.000000 
-110.000000 -130.000000 590.000000 
-90.000000 -130.000000 590.000000 
-150.000000 -110.000000 590.000000 
-130.000000 -90.000000 570.000000 
-130.000000 -110.000000 590.000000 
-150.000000 -90.000000 590.000000 
-130.000000 -90.000000 590.000000 
-150.000000 -130.000000 610.000000 
-130.000000 -130.000000 610.000000 
-150.000000 -130.000000 630.000000 
-110.000000 -110.000000 570.000000 
-90.000000 -110.000000 570.000000 
-110.000000 -90.000000 570.000000 
-110.000000 -110.000000 590.000000 
-90.000000 -90.000000 570.000000 
-90.000000 -110.000000 590.000000 
-110.000000 -90.000000 590.000000 
-90.000000 -90.000000 590.000000 
-110.000000 -130.000000 610.000000 
-110.000000 -150.000000 630.000000 
-90.000000 -150.000000 630.000000 
-90.000000 -130.000000 630.000000 
-150.000000 -110.000000 610.000000 
-130.000000 -110.000000 610.000000 
-150.000000 -90.000000 610.000000 
-130.000000 -90.000000 610.000000 
-150.000000 -90.000000 630.000000 
-110.000000 -110.000000 610.000000 
-90.000000 -110.000000 610.000000 
-110.000000 -90.000000 610.000000 
-90.000000 -90.000000 610.000000 
-90.000000 -110.000000 630.000000 
-110.000000 -90.000000 630.000000 
-90.000000 -90.000000 630.000000 
-70.000000 -70.000000 490.000000 
-50.000000 -70.000000 490.000000 
-70.000000 -50.000000 490.000000 
-70.000000 -70.000000 510.000000 
-50.000000 -50.000000 490.000000 
-50.000000 -70.000000 510.000000 
-70.000000 -50.000000 510.000000 
-50.000000 -50.000000 510.000000 
-30.000000 -70.000000 490.000000 
-10.000000 -70.000000 490.000000 
-30.000000 -50.000000 490.000000 
-30.000000 -70.000000 510.000000 
-10.000000 -50.000000 490.000000 
-10.000000 -70.000000 510.000000 
-30.000000 -50.000000 510.000000 
-10.000000 -50.000000 510.000000 
-70.000000 -30.000000 490.000000 
-50.000000 -30.000000 490.000000 
-70.000000 -10.000000 490.000000 
-70.000000 -30.000000 510.000000 
-50.000000 -10.000000 490.000000 
-50.000000 -30.000000 510.000000 
-70.000000 -10.000000 510.000000 
-50.000000 -10.000000 510.000000 
-70.000000 -70.000000 530.000000 
-50.000000 -70.000000 530.000000 
-70.000000 -50.000000 530.000000 
-70.000000 -70.000000 550.000000 
-50.000000 -50.000000 530.000000 
-50.000000 -70.000000 550.000000 
-70.000000 -50.000000 550.000000 
-50.000000 -50.000000 550.000000 
-30.000000 -30.000000 490.000000 
-10.000000 -30.000000 490.000000 
-30.000000 -10.000000 490.000000 
-30.000000 -30.000000 510.000000 
-10.000000 -10.000000 490.000000 
-10.000000 -30.000000 510.000000 
-30.000000 -10.000000 510.000000 
-10.000000 -10.000000 510.000000 
-30.000000 -70.000000 530.000000 
-10.000000 -70.000000 530.000000 
-30.000000 -50.000000 530.000000 
-30.000000 -70.000000 550.000000 
-10.000000 -50.000000 530.000000 
-10.000000 -70.000000 550.000000 
-30.000000 -50.000000 550.000000 
-10.000000 -50.000000 550.000000 
-70.000000 -30.000000 530.000000 
-50.000000 -30.000000 530.000000 
-70.000000 -10.000000 530.000000 
-50.000000 -10.000000 530.000000 
-50.000000 -30.000000 550.000000 
-70.000000 -10.000000 550.000000 
-50.000000 -10.000000 550.000000 
-30.000000 -30.000000 530.000000 
-10.000000 -30.000000 530.000000 
-30.000000 -10.000000 530.000000 
-30.000000 -30.000000 550.000000 
-10.000000 -10.000000 530.000000 
-10.000000 -30.000000 550.000000 
-30.000000 -10.000000 550.000000 
-10.000000 -10.000000 550.000000 
-70.000000 -130.000000 590.000000 
-50.000000 -130.000000 590.000000 
-30.000000 -130.000000 590.000000 
-10.000000 -130.000000 590.000000 
-70.000000 -110.000000 570.000000 
-50.000000 -110.000000 570.000000 
-70.000000 -90.000000 570.000000 
-70.000000 -110.000000 590.000000 
-50.000000 -90.000000 570.000000 
-50.000000 -110.000000 590.000000 
-70.000000 -90.000000 590.000000 
-50.000000 -90.000000 590.000000 
-70.000000 -130.000000 610.000000 
-70.000000 -150.000000 630.000000 
-50.000000 -130.000000 610.000000 
-50.000000 -150.000000 630.000000 
-70.000000 -130.000000 630.000000 
-50.000000 -130.000000 630.000000 
-30.000000 -110.000000 570.000000 
-10.000000 -110.000000 570.000000 
-30.000000 -90.000000 570.000000 
-30.000000 -110.000000 590.000000 
-10.000000 -90.000000 570.000000 
-10.000000 -110.000000 590.000000 
-30.000000 -90.000000 590.000000 
-10.000000 -90.000000 590.000000 
-30.000000 -130.000000 610.000000 
-30.000000 -150.000000 630.000000 
-10.000000 -130.000000 610.000000 
-30.000000 -130.000000 630.000000 
-10.000000 -130.000000 630.000000 
-70.000000 -110.000000 610.000000 
-50.000000 -110.000000 610.000000 
-70.000000 -90.000000 610.000000 
-70.000000 -110.000000 630.000000 
-50.000000 -90.000000 610.000000 
-50.000000 -110.000000 630.000000 
-70.000000 -90.000000 630.000000 
-50.000000 -90.000000 630.000000 
-30.000000 -110.000000 610.000000 
-10.000000 -110.000000 610.000000 
-30.000000 -90.000000 610.000000 
-30.000000 -110.000000 630.000000 
-10.000000 -90.000000 610.000000 
-10.000000 -110.000000 630.000000 
-30.000000 -90.000000 630.000000 
-10.000000 -90.000000 630.000000 
-130.000000 -70.000000 570.000000 
-150.000000 -70.000000 590.000000 
-130.000000 -50.000000 570.000000 
-130.000000 -70.000000 590.000000 
-150.000000 -50.000000 590.000000 
-130.000000 -50.000000 590.000000 
-110.000000 -70.000000 570.000000 
-90.000000 -70.000000 570.000000 
-110.000000 -50.000000 570.000000 
-110.000000 -70.000000 590.000000 
-90.000000 -50.000000 570.000000 
-90.000000 -70.000000 590.000000 
-110.000000 -50.000000 590.000000 
-90.000000 -50.000000 590.000000 
-130.000000 -30.000000 570.000000 
-150.000000 -30.000000 590.000000 
-130.000000 -30.000000 590.000000 
-150.000000 -70.000000 610.000000 
-130.000000 -70.000000 610.000000 
-150.000000 -50.000000 610.000000 
-150.000000 -70.000000 630.000000 
-130.000000 -50.000000 610.000000 
-110.000000 -30.000000 570.000000 
-90.000000 -30.000000 570.000000 
-110.000000 -10.000000 570.000000 
-110.000000 -30.000000 590.000000 
-90.000000 -10.000000 570.000000 
-90.000000 -30.000000 590.000000 
-90.000000 -70.000000 610.000000 
-110.000000 -70.000000 630.000000 
-90.000000 -50.000000 610.000000 
-90.000000 -70.000000 630.000000 
-90.000000 -50.000000 630.000000 
-150.000000 -30.000000 610.000000 
-130.000000 -30.000000 610.000000 
-110.000000 -30.000000 610.000000 
-90.000000 -30.000000 610.000000 
-70.000000 -70.000000 570.000000 
-50.000000 -70.000000 570.000000 
-70.000000 -50.000000 570.000000 
-70.000000 -70.000000 590.000000 
-50.000000 -50.000000 570.000000 
-50.000000 -70.000000 590.000000 
-70.000000 -50.000000 590.000000 
-50.000000 -50.000000 590.000000 
-30.000000 -70.000000 570.000000 
-10.000000 -70.000000 570.000000 
-30.000000 -50.000000 570.000000 
-30.000000 -70.000000 590.000000 
-10.000000 -50.000000 570.000000 
-10.000000 -70.000000 590.000000 
-30.000000 -50.000000 590.000000 
-10.000000 -50.000000 590.000000 
-70.000000 -30.000000 570.000000 
-50.000000 -30.000000 570.000000 
-70.000000 -10.000000 570.000000 
-70.000000 -30.000000 590.000000 
-50.000000 -10.000000 570.000000 
-50.000000 -30.000000 590.000000 
-70.000000 -70.000000 610.000000 
-50.000000 -70.000000 610.000000 
-70.000000 -50.000000 610.000000 
-70.000000 -70.000000 630.000000 
-50.000000 -50.000000 610.000000 
-50.000000 -70.000000 630.000000 
-70.000000 -50.000000 630.000000 
-50.000000 -50.000000 630.000000 
-30.000000 -30.000000 570.000000 
-10.000000 -30.000000 570.000000 
-30.000000 -10.000000 570.000000 
-30.000000 -30.000000 590.000000 
-10.000000 -10.000000 570.000000 
-10.000000 -30.000000 590.000000 
-30.000000 -70.000000 610.000000 
-10.000000 -70.000000 610.000000 
-30.000000 -50.000000 610.000000 
-30.000000 -70.000000 630.000000 
-10.000000 -50.000000 610.000000 
-10.000000 -70.000000 630.000000 
-30.000000 -50.000000 630.000000 
-10.000000 -50.000000 630.000000 
-70.000000 -30.000000 610.000000 
-50.000000 -30.000000 610.000000 
-30.000000 -30.000000 610.000000 
-10.000000 -30.000000 610.000000 
-470.000000 -170.000000 650.000000 
-450.000000 -170.000000 650.000000 
-450.000000 -170.000000 670.000000 
-430.000000 -170.000000 650.000000 
-430.000000 -190.000000 670.000000 
-410.000000 -170.000000 650.000000 
-410.000000 -190.000000 670.000000 
-430.000000 -170.000000 670.000000 
-410.000000 -170.000000 670.000000 
-410.000000 -190.000000 690.000000 
-410.000000 -170.000000 690.000000 
-390.000000 -190.000000 670.000000 
-390.000000 -170.000000 670.000000 
-330.000000 -190.000000 670.000000 
-330.000000 -170.000000 670.000000 
-390.000000 -170.000000 690.000000 
-370.000000 -170.000000 690.000000 
-450.000000 -150.000000 650.000000 
-430.000000 -150.000000 650.000000 
-410.000000 -150.000000 650.000000 
-430.000000 -150.000000 670.000000 
-410.000000 -130.000000 650.000000 
-410.000000 -150.000000 670.000000 
-430.000000 -130.000000 670.000000 
-410.000000 -130.000000 670.000000 
-410.000000 -150.000000 690.000000 
-410.000000 -130.000000 690.000000 
-390.000000 -150.000000 670.000000 
-390.000000 -130.000000 670.000000 
-330.000000 -150.000000 670.000000 
-330.000000 -130.000000 670.000000 
-390.000000 -150.000000 690.000000 
-370.000000 -150.000000 690.000000 
-390.000000 -130.000000 690.000000 
-370.000000 -130.000000 690.000000 
-330.000000 -90.000000 670.000000 
-350.000000 -150.000000 690.000000 
-330.000000 -150.000000 690.000000 
-350.000000 -130.000000 690.000000 
-330.000000 -130.000000 690.000000 
-350.000000 -130.000000 710.000000 
-390.000000 -110.000000 690.000000 
-370.000000 -110.000000 690.000000 
-370.000000 -110.000000 710.000000 
-350.000000 -110.000000 690.000000 
-330.000000 -110.000000 690.000000 
-350.000000 -90.000000 690.000000 
-350.000000 -110.000000 710.000000 
-330.000000 -90.000000 690.000000 
-330.000000 -110.000000 710.000000 
-310.000000 -190.000000 670.000000 
-310.000000 -170.000000 670.000000 
-290.000000 -170.000000 670.000000 
-270.000000 -190.000000 670.000000 
-270.000000 -170.000000 670.000000 
-270.000000 -190.000000 690.000000 
-250.000000 -190.000000 690.000000 
-230.000000 -170.000000 670.000000 
-230.000000 -170.000000 690.000000 
-130.000000 -250.000000 650.000000 
-130.000000 -250.000000 670.000000 
-110.000000 -250.000000 650.000000 
-110.000000 -250.000000 670.000000 
-130.000000 -250.000000 690.000000 
-130.000000 -250.000000 710.000000 
-110.000000 -250.000000 690.000000 
-110.000000 -250.000000 710.000000 
-130.000000 -230.000000 650.000000 
-130.000000 -230.000000 670.000000 
-110.000000 -230.000000 650.000000 
-110.000000 -230.000000 670.000000 
-130.000000 -190.000000 650.000000 
-130.000000 -170.000000 650.000000 
-130.000000 -190.000000 670.000000 
-130.000000 -230.000000 690.000000 
-130.000000 -230.000000 710.000000 
-110.000000 -190.000000 650.000000 
-110.000000 -170.000000 650.000000 
-110.000000 -230.000000 690.000000 
-110.000000 -230.000000 710.000000 
-90.000000 -230.000000 710.000000 
-110.000000 -170.000000 710.000000 
-90.000000 -170.000000 710.000000 
-70.000000 -190.000000 650.000000 
-50.000000 -190.000000 650.000000 
-70.000000 -170.000000 650.000000 
-50.000000 -170.000000 650.000000 
-70.000000 -170.000000 670.000000 
-50.000000 -170.000000 670.000000 
-30.000000 -190.000000 650.000000 
-30.000000 -170.000000 650.000000 
-30.000000 -190.000000 670.000000 
-10.000000 -170.000000 650.000000 
-30.000000 -170.000000 670.000000 
-70.000000 -170.000000 690.000000 
-70.000000 -170.000000 710.000000 
-130.000000 -230.000000 730.000000 
-130.000000 -210.000000 730.000000 
-130.000000 -210.000000 750.000000 
-110.000000 -230.000000 730.000000 
-90.000000 -230.000000 730.000000 
-110.000000 -210.000000 730.000000 
-90.000000 -210.000000 730.000000 
-110.000000 -210.000000 750.000000 
-90.000000 -210.000000 750.000000 
-130.000000 -190.000000 730.000000 
-130.000000 -170.000000 730.000000 
-130.000000 -190.000000 750.000000 
-130.000000 -170.000000 750.000000 
-110.000000 -190.000000 730.000000 
-90.000000 -190.000000 730.000000 
-110.000000 -170.000000 730.000000 
-110.000000 -190.000000 750.000000 
-90.000000 -170.000000 730.000000 
-90.000000 -190.000000 750.000000 
-110.000000 -170.000000 750.000000 
-70.000000 -190.000000 730.000000 
-70.000000 -170.000000 730.000000 
-310.000000 -150.000000 670.000000 
-290.000000 -150.000000 670.000000 
-310.000000 -130.000000 670.000000 
-290.000000 -130.000000 670.000000 
-270.000000 -150.000000 670.000000 
-250.000000 -150.000000 670.000000 
-270.000000 -130.000000 670.000000 
-250.000000 -130.000000 670.000000 
-310.000000 -110.000000 670.000000 
-290.000000 -110.000000 670.000000 
-310.000000 -90.000000 670.000000 
-290.000000 -90.000000 670.000000 
-310.000000 -150.000000 690.000000 
-290.000000 -150.000000 690.000000 
-310.000000 -130.000000 690.000000 
-290.000000 -130.000000 690.000000 
-270.000000 -110.000000 670.000000 
-250.000000 -110.000000 670.000000 
-270.000000 -90.000000 670.000000 
-250.000000 -90.000000 670.000000 
-270.000000 -150.000000 690.000000 
-250.000000 -150.000000 690.000000 
-270.000000 -130.000000 690.000000 
-250.000000 -130.000000 690.000000 
-310.000000 -110.000000 690.000000 
-290.000000 -110.000000 690.000000 
-310.000000 -90.000000 690.000000 
-290.000000 -90.000000 690.000000 
-270.000000 -110.000000 690.000000 
-250.000000 -110.000000 690.000000 
-270.000000 -90.000000 690.000000 
-250.000000 -90.000000 690.000000 
-210.000000 -150.000000 650.000000 
-230.000000 -150.000000 670.000000 
-210.000000 -130.000000 650.000000 
-210.000000 -150.000000 670.000000 
-230.000000 -130.000000 670.000000 
-210.000000 -130.000000 670.000000 
-190.000000 -150.000000 650.000000 
-190.000000 -130.000000 650.000000 
-190.000000 -130.000000 670.000000 
-230.000000 -110.000000 650.000000 
-210.000000 -110.000000 650.000000 
-230.000000 -90.000000 650.000000 
-230.000000 -110.000000 670.000000 
-210.000000 -90.000000 650.000000 
-210.000000 -110.000000 670.000000 
-230.000000 -90.000000 670.000000 
-210.000000 -90.000000 670.000000 
-230.000000 -130.000000 690.000000 
-210.000000 -130.000000 690.000000 
-190.000000 -110.000000 650.000000 
-170.000000 -110.000000 650.000000 
-190.000000 -90.000000 650.000000 
-190.000000 -110.000000 670.000000 
-170.000000 -90.000000 650.000000 
-190.000000 -90.000000 670.000000 
-230.000000 -110.000000 690.000000 
-310.000000 -70.000000 670.000000 
-290.000000 -70.000000 670.000000 
-270.000000 -70.000000 670.000000 
-250.000000 -70.000000 670.000000 
-270.000000 -50.000000 670.000000 
-250.000000 -50.000000 670.000000 
-230.000000 -70.000000 650.000000 
-210.000000 -70.000000 650.000000 
-230.000000 -70.000000 670.000000 
-210.000000 -50.000000 650.000000 
-210.000000 -70.000000 670.000000 
-230.000000 -50.000000 670.000000 
-210.000000 -50.000000 670.000000 
-190.000000 -70.000000 650.000000 
-170.000000 -70.000000 650.000000 
-190.000000 -50.000000 650.000000 
-190.000000 -70.000000 670.000000 
-190.000000 -50.000000 670.000000 
-130.000000 -150.000000 650.000000 
-90.000000 -150.000000 650.000000 
-110.000000 -130.000000 650.000000 
-110.000000 -150.000000 670.000000 
-90.000000 -130.000000 650.000000 
-90.000000 -150.000000 670.000000 
-110.000000 -130.000000 670.000000 
-90.000000 -130.000000 670.000000 
-130.000000 -110.000000 670.000000 
-130.000000 -130.000000 690.000000 
-130.000000 -150.000000 710.000000 
-130.000000 -130.000000 710.000000 
-110.000000 -110.000000 650.000000 
-90.000000 -110.000000 650.000000 
-110.000000 -90.000000 650.000000 
-110.000000 -110.000000 670.000000 
-90.000000 -90.000000 650.000000 
-90.000000 -110.000000 670.000000 
-110.000000 -90.000000 670.000000 
-90.000000 -90.000000 670.000000 
-110.000000 -150.000000 690.000000 
-90.000000 -150.000000 690.000000 
-110.000000 -130.000000 690.000000 
-110.000000 -150.000000 710.000000 
-90.000000 -130.000000 690.000000 
-90.000000 -150.000000 710.000000 
-110.000000 -130.000000 710.000000 
-90.000000 -130.000000 710.000000 
-110.000000 -110.000000 690.000000 
-90.000000 -110.000000 690.000000 
-110.000000 -110.000000 710.000000 
-90.000000 -90.000000 690.000000 
-90.000000 -110.000000 710.000000 
-70.000000 -150.000000 650.000000 
-50.000000 -150.000000 650.000000 
-70.000000 -130.000000 650.000000 
-70.000000 -150.000000 670.000000 
-50.000000 -130.000000 650.000000 
-50.000000 -150.000000 670.000000 
-70.000000 -130.000000 670.000000 
-50.000000 -130.000000 670.000000 
-30.000000 -150.000000 650.000000 
-10.000000 -150.000000 650.000000 
-30.000000 -130.000000 650.000000 
-10.000000 -130.000000 650.000000 
-30.000000 -130.000000 670.000000 
-70.000000 -110.000000 650.000000 
-50.000000 -110.000000 650.000000 
-70.000000 -90.000000 650.000000 
-70.000000 -110.000000 670.000000 
-50.000000 -90.000000 650.000000 
-50.000000 -110.000000 670.000000 
-70.000000 -90.000000 670.000000 
-50.000000 -90.000000 670.000000 
-70.000000 -150.000000 690.000000 
-50.000000 -150.000000 690.000000 
-70.000000 -130.000000 690.000000 
-70.000000 -150.000000 710.000000 
-50.000000 -130.000000 690.000000 
-70.000000 -130.000000 710.000000 
-50.000000 -130.000000 710.000000 
-30.000000 -110.000000 650.000000 
-10.000000 -110.000000 650.000000 
-30.000000 -90.000000 650.000000 
-30.000000 -110.000000 670.000000 
-10.000000 -90.000000 650.000000 
-30.000000 -90.000000 670.000000 
-70.000000 -110.000000 690.000000 
-50.000000 -110.000000 690.000000 
-70.000000 -90.000000 690.000000 
-70.000000 -110.000000 710.000000 
-50.000000 -90.000000 690.000000 
-50.000000 -110.000000 710.000000 
-30.000000 -90.000000 690.000000 
-110.000000 -70.000000 650.000000 
-90.000000 -70.000000 650.000000 
-90.000000 -50.000000 650.000000 
-90.000000 -70.000000 670.000000 
-130.000000 -150.000000 730.000000 
-130.000000 -130.000000 730.000000 
-110.000000 -150.000000 730.000000 
-90.000000 -150.000000 730.000000 
-110.000000 -130.000000 730.000000 
-90.000000 -130.000000 730.000000 
-70.000000 -70.000000 650.000000 
-50.000000 -70.000000 650.000000 
-70.000000 -50.000000 650.000000 
-70.000000 -70.000000 670.000000 
-50.000000 -50.000000 650.000000 
-50.000000 -70.000000 670.000000 
-30.000000 -70.000000 650.000000 
-10.000000 -70.000000 650.000000 
-30.000000 -50.000000 650.000000 
-30.000000 -70.000000 670.000000 
-70.000000 -150.000000 730.000000 
-50.000000 -150.000000 730.000000 
-70.000000 -130.000000 730.000000 
10.000000 10.000000 -450.000000 
10.000000 10.000000 -430.000000 
30.000000 10.000000 -430.000000 
10.000000 10.000000 -410.000000 
10.000000 10.000000 -390.000000 
10.000000 10.000000 -370.000000 
10.000000 10.000000 -350.000000 
10.000000 10.000000 -330.000000 
10.000000 10.000000 -310.000000 
30.000000 10.000000 -310.000000 
10.000000 30.000000 -290.000000 
10.000000 10.000000 -230.000000 
30.000000 10.000000 -230.000000 
10.000000 10.000000 -210.000000 
30.000000 10.000000 -210.000000 
50.000000 10.000000 -210.000000 
10.000000 10.000000 -190.000000 
30.000000 10.000000 -190.000000 
10.000000 10.000000 -170.000000 
50.000000 10.000000 -190.000000 
70.000000 10.000000 -190.000000 
50.000000 30.000000 -190.000000 
70.000000 30.000000 -190.000000 
70.000000 10.000000 -170.000000 
70.000000 30.000000 -170.000000 
90.000000 10.000000 -170.000000 
110.000000 10.000000 -170.000000 
90.000000 30.000000 -170.000000 
110.000000 30.000000 -170.000000 
10.000000 10.000000 -150.000000 
90.000000 10.000000 -150.000000 
110.000000 10.000000 -150.000000 
90.000000 30.000000 -150.000000 
110.000000 30.000000 -150.000000 
110.000000 30.000000 -130.000000 
130.000000 10.000000 -150.000000 
130.000000 30.000000 -150.000000 
130.000000 30.000000 -130.000000 
150.000000 30.000000 -130.000000 
90.000000 50.000000 -150.000000 
110.000000 50.000000 -150.000000 
110.000000 50.000000 -130.000000 
110.000000 70.000000 -130.000000 
130.000000 50.000000 -150.000000 
130.000000 50.000000 -130.000000 
150.000000 50.000000 -130.000000 
130.000000 70.000000 -130.000000 
150.000000 70.000000 -130.000000 
150.000000 70.000000 -110.000000 
170.000000 30.000000 -130.000000 
170.000000 50.000000 -130.000000 
190.000000 50.000000 -130.000000 
170.000000 70.000000 -130.000000 
190.000000 70.000000 -130.000000 
170.000000 30.000000 -110.000000 
190.000000 30.000000 -110.000000 
170.000000 50.000000 -110.000000 
190.000000 50.000000 -110.000000 
170.000000 70.000000 -110.000000 
190.000000 70.000000 -110.000000 
210.000000 50.000000 -110.000000 
230.000000 50.000000 -110.000000 
210.000000 70.000000 -110.000000 
230.000000 70.000000 -110.000000 
250.000000 70.000000 -110.000000 
270.000000 70.000000 -110.000000 
170.000000 90.000000 -110.000000 
190.000000 90.000000 -110.000000 
190.000000 110.000000 -110.000000 
210.000000 90.000000 -110.000000 
230.000000 90.000000 -110.000000 
210.000000 110.000000 -110.000000 
230.000000 110.000000 -110.000000 
210.000000 130.000000 -110.000000 
230.000000 130.000000 -110.000000 
290.000000 110.000000 -130.000000 
310.000000 110.000000 -130.000000 
250.000000 90.000000 -110.000000 
270.000000 90.000000 -110.000000 
250.000000 110.000000 -110.000000 
270.000000 110.000000 -110.000000 
290.000000 130.000000 -130.000000 
310.000000 130.000000 -130.000000 
290.000000 150.000000 -130.000000 
310.000000 150.000000 -130.000000 
290.000000 90.000000 -110.000000 
310.000000 90.000000 -110.000000 
290.000000 110.000000 -110.000000 
310.000000 110.000000 -110.000000 
250.000000 130.000000 -110.000000 
270.000000 130.000000 -110.000000 
290.000000 130.000000 -110.000000 
310.000000 130.000000 -110.000000 
390.000000 150.000000 -230.000000 
370.000000 150.000000 -210.000000 
390.000000 150.000000 -210.000000 
350.000000 130.000000 -170.000000 
350.000000 150.000000 -170.000000 
370.000000 150.000000 -190.000000 
370.000000 130.000000 -170.000000 
390.000000 150.000000 -190.000000 
370.000000 150.000000 -170.000000 
390.000000 150.000000 -170.000000 
390.000000 170.000000 -270.000000 
390.000000 170.000000 -250.000000 
410.000000 190.000000 -310.000000 
410.000000 170.000000 -290.000000 
410.000000 190.000000 -290.000000 
410.000000 170.000000 -270.000000 
410.000000 190.000000 -270.000000 
410.000000 170.000000 -250.000000 
410.000000 190.000000 -250.000000 
390.000000 170.000000 -230.000000 
370.000000 170.000000 -210.000000 
390.000000 190.000000 -230.000000 
390.000000 170.000000 -210.000000 
350.000000 170.000000 -170.000000 
370.000000 170.000000 -190.000000 
390.000000 170.000000 -190.000000 
370.000000 170.000000 -170.000000 
410.000000 170.000000 -230.000000 
410.000000 190.000000 -230.000000 
330.000000 110.000000 -130.000000 
330.000000 130.000000 -150.000000 
350.000000 130.000000 -150.000000 
330.000000 150.000000 -150.000000 
330.000000 130.000000 -130.000000 
350.000000 150.000000 -150.000000 
350.000000 130.000000 -130.000000 
330.000000 150.000000 -130.000000 
350.000000 150.000000 -130.000000 
330.000000 110.000000 -110.000000 
370.000000 130.000000 -150.000000 
370.000000 150.000000 -150.000000 
330.000000 130.000000 -110.000000 
350.000000 170.000000 -150.000000 
10.000000 -50.000000 10.000000 
30.000000 -50.000000 10.000000 
10.000000 -50.000000 30.000000 
30.000000 -50.000000 30.000000 
10.000000 -30.000000 10.000000 
30.000000 -30.000000 10.000000 
10.000000 -10.000000 10.000000 
10.000000 -30.000000 30.000000 
30.000000 -10.000000 10.000000 
30.000000 -30.000000 30.000000 
10.000000 -10.000000 30.000000 
30.000000 -10.000000 30.000000 
10.000000 -30.000000 50.000000 
30.000000 -30.000000 50.000000 
10.000000 -10.000000 50.000000 
10.000000 -30.000000 70.000000 
30.000000 -10.000000 50.000000 
30.000000 -30.000000 70.000000 
10.000000 -10.000000 70.000000 
30.000000 -10.000000 70.000000 
50.000000 -30.000000 50.000000 
50.000000 -10.000000 50.000000 
50.000000 -30.000000 70.000000 
50.000000 -10.000000 70.000000 
10.000000 -30.000000 90.000000 
30.000000 -30.000000 90.000000 
10.000000 -10.000000 90.000000 
10.000000 -30.000000 110.000000 
30.000000 -10.000000 90.000000 
30.000000 -30.000000 110.000000 
10.000000 -10.000000 110.000000 
30.000000 -10.000000 110.000000 
10.000000 -50.000000 150.000000 
30.000000 -50.000000 150.000000 
50.000000 -30.000000 90.000000 
70.000000 -30.000000 90.000000 
50.000000 -10.000000 90.000000 
50.000000 -30.000000 110.000000 
