408.000000 -200.000000 -280.000000 
392.000000 -200.000000 -264.000000 
408.000000 -200.000000 -264.000000 
8.000000 -40.000000 -232.000000 
8.000000 -24.000000 -248.000000 
8.000000 -8.000000 -248.000000 
8.000000 -24.000000 -232.000000 
24.000000 -24.000000 -232.000000 
8.000000 -8.000000 -232.000000 
24.000000 -8.000000 -232.000000 
8.000000 -40.000000 -216.000000 
8.000000 -56.000000 -200.000000 
24.000000 -40.000000 -216.000000 
24.000000 -56.000000 -200.000000 
8.000000 -40.000000 -200.000000 
24.000000 -40.000000 -200.000000 
40.000000 -40.000000 -216.000000 
40.000000 -40.000000 -200.000000 
56.000000 -40.000000 -200.000000 
8.000000 -24.000000 -216.000000 
24.000000 -24.000000 -216.000000 
8.000000 -8.000000 -216.000000 
8.000000 -24.000000 -200.000000 
24.000000 -8.000000 -216.000000 
24.000000 -24.000000 -200.000000 
8.000000 -8.000000 -200.000000 
24.000000 -8.000000 -200.000000 
40.000000 -24.000000 -216.000000 
40.000000 -24.000000 -200.000000 
56.000000 -72.000000 -168.000000 
56.000000 -72.000000 -152.000000 
72.000000 -72.000000 -168.000000 
88.000000 -72.000000 -168.000000 
88.000000 -104.000000 -136.000000 
104.000000 -104.000000 -136.000000 
120.000000 -104.000000 -136.000000 
72.000000 -88.000000 -152.000000 
88.000000 -88.000000 -152.000000 
72.000000 -72.000000 -152.000000 
88.000000 -72.000000 -152.000000 
88.000000 -88.000000 -136.000000 
88.000000 -72.000000 -136.000000 
104.000000 -88.000000 -152.000000 
104.000000 -72.000000 -152.000000 
104.000000 -88.000000 -136.000000 
120.000000 -72.000000 -152.000000 
120.000000 -88.000000 -136.000000 
104.000000 -72.000000 -136.000000 
120.000000 -72.000000 -136.000000 
24.000000 -56.000000 -184.000000 
8.000000 -40.000000 -184.000000 
24.000000 -40.000000 -184.000000 
40.000000 -56.000000 -184.000000 
56.000000 -56.000000 -184.000000 
40.000000 -40.000000 -184.000000 
40.000000 -56.000000 -168.000000 
56.000000 -40.000000 -184.000000 
56.000000 -56.000000 -168.000000 
56.000000 -40.000000 -168.000000 
8.000000 -24.000000 -184.000000 
8.000000 -8.000000 -184.000000 
8.000000 -24.000000 -168.000000 
8.000000 -8.000000 -168.000000 
40.000000 -24.000000 -184.000000 
56.000000 -24.000000 -184.000000 
56.000000 -56.000000 -152.000000 
8.000000 -24.000000 -152.000000 
8.000000 -8.000000 -152.000000 
8.000000 -24.000000 -136.000000 
8.000000 -8.000000 -136.000000 
72.000000 -56.000000 -184.000000 
72.000000 -56.000000 -168.000000 
88.000000 -56.000000 -168.000000 
72.000000 -40.000000 -168.000000 
72.000000 -24.000000 -168.000000 
72.000000 -56.000000 -152.000000 
88.000000 -56.000000 -152.000000 
72.000000 -40.000000 -152.000000 
88.000000 -40.000000 -152.000000 
88.000000 -56.000000 -136.000000 
104.000000 -56.000000 -152.000000 
104.000000 -56.000000 -136.000000 
120.000000 -56.000000 -136.000000 
136.000000 -88.000000 -136.000000 
152.000000 -88.000000 -136.000000 
136.000000 -72.000000 -136.000000 
152.000000 -72.000000 -136.000000 
136.000000 -56.000000 -136.000000 
152.000000 -136.000000 -120.000000 
168.000000 -136.000000 -120.000000 
184.000000 -136.000000 -120.000000 
168.000000 -136.000000 -104.000000 
184.000000 -136.000000 -104.000000 
232.000000 -168.000000 -120.000000 
248.000000 -168.000000 -120.000000 
232.000000 -168.000000 -104.000000 
248.000000 -168.000000 -104.000000 
200.000000 -152.000000 -120.000000 
216.000000 -152.000000 -120.000000 
200.000000 -136.000000 -120.000000 
200.000000 -152.000000 -104.000000 
216.000000 -136.000000 -120.000000 
216.000000 -152.000000 -104.000000 
200.000000 -136.000000 -104.000000 
216.000000 -136.000000 -104.000000 
232.000000 -152.000000 -120.000000 
248.000000 -152.000000 -120.000000 
232.000000 -136.000000 -120.000000 
232.000000 -152.000000 -104.000000 
248.000000 -136.000000 -120.000000 
248.000000 -152.000000 -104.000000 
232.000000 -136.000000 -104.000000 
248.000000 -136.000000 -104.000000 
120.000000 -104.000000 -120.000000 
120.000000 -88.000000 -120.000000 
120.000000 -72.000000 -120.000000 
8.000000 -24.000000 -120.000000 
8.000000 -8.000000 -120.000000 
8.000000 -24.000000 -104.000000 
8.000000 -8.000000 -104.000000 
8.000000 -24.000000 -88.000000 
8.000000 -8.000000 -88.000000 
8.000000 -24.000000 -72.000000 
8.000000 -8.000000 -72.000000 
8.000000 -24.000000 -56.000000 
8.000000 -8.000000 -56.000000 
8.000000 -8.000000 -40.000000 
136.000000 -120.000000 -120.000000 
152.000000 -120.000000 -120.000000 
136.000000 -104.000000 -120.000000 
152.000000 -104.000000 -120.000000 
152.000000 -120.000000 -104.000000 
152.000000 -104.000000 -104.000000 
168.000000 -120.000000 -120.000000 
184.000000 -120.000000 -120.000000 
168.000000 -104.000000 -120.000000 
168.000000 -120.000000 -104.000000 
184.000000 -104.000000 -120.000000 
184.000000 -120.000000 -104.000000 
168.000000 -104.000000 -104.000000 
184.000000 -104.000000 -104.000000 
136.000000 -88.000000 -120.000000 
152.000000 -88.000000 -120.000000 
136.000000 -72.000000 -120.000000 
152.000000 -72.000000 -120.000000 
168.000000 -88.000000 -120.000000 
184.000000 -88.000000 -120.000000 
168.000000 -72.000000 -120.000000 
168.000000 -88.000000 -104.000000 
184.000000 -72.000000 -120.000000 
184.000000 -88.000000 -104.000000 
200.000000 -120.000000 -120.000000 
216.000000 -120.000000 -120.000000 
200.000000 -104.000000 -120.000000 
200.000000 -120.000000 -104.000000 
216.000000 -104.000000 -120.000000 
216.000000 -120.000000 -104.000000 
200.000000 -104.000000 -104.000000 
216.000000 -104.000000 -104.000000 
232.000000 -120.000000 -120.000000 
248.000000 -120.000000 -120.000000 
232.000000 -104.000000 -120.000000 
232.000000 -120.000000 -104.000000 
248.000000 -104.000000 -120.000000 
248.000000 -120.000000 -104.000000 
232.000000 -104.000000 -104.000000 
248.000000 -104.000000 -104.000000 
200.000000 -88.000000 -120.000000 
216.000000 -88.000000 -120.000000 
200.000000 -72.000000 -120.000000 
200.000000 -88.000000 -104.000000 
216.000000 -88.000000 -104.000000 
232.000000 -88.000000 -120.000000 
232.000000 -88.000000 -104.000000 
376.000000 -200.000000 -248.000000 
376.000000 -200.000000 -232.000000 
360.000000 -200.000000 -216.000000 
376.000000 -200.000000 -216.000000 
360.000000 -200.000000 -200.000000 
376.000000 -200.000000 -200.000000 
312.000000 -200.000000 -152.000000 
312.000000 -200.000000 -136.000000 
376.000000 -184.000000 -216.000000 
360.000000 -184.000000 -200.000000 
376.000000 -184.000000 -200.000000 
328.000000 -200.000000 -168.000000 
344.000000 -200.000000 -168.000000 
360.000000 -200.000000 -184.000000 
376.000000 -200.000000 -184.000000 
360.000000 -200.000000 -168.000000 
328.000000 -200.000000 -152.000000 
344.000000 -200.000000 -152.000000 
312.000000 -184.000000 -152.000000 
296.000000 -184.000000 -136.000000 
312.000000 -184.000000 -136.000000 
296.000000 -168.000000 -136.000000 
312.000000 -168.000000 -136.000000 
312.000000 -152.000000 -136.000000 
328.000000 -184.000000 -168.000000 
344.000000 -184.000000 -168.000000 
344.000000 -168.000000 -168.000000 
360.000000 -184.000000 -184.000000 
376.000000 -184.000000 -184.000000 
360.000000 -168.000000 -184.000000 
360.000000 -184.000000 -168.000000 
360.000000 -168.000000 -168.000000 
328.000000 -184.000000 -152.000000 
344.000000 -184.000000 -152.000000 
328.000000 -168.000000 -152.000000 
328.000000 -184.000000 -136.000000 
344.000000 -168.000000 -152.000000 
344.000000 -184.000000 -136.000000 
328.000000 -168.000000 -136.000000 
344.000000 -168.000000 -136.000000 
360.000000 -184.000000 -152.000000 
328.000000 -152.000000 -136.000000 
392.000000 -200.000000 -248.000000 
408.000000 -200.000000 -248.000000 
392.000000 -200.000000 -232.000000 
392.000000 -200.000000 -216.000000 
392.000000 -184.000000 -216.000000 
280.000000 -184.000000 -120.000000 
264.000000 -168.000000 -120.000000 
280.000000 -168.000000 -120.000000 
264.000000 -168.000000 -104.000000 
280.000000 -168.000000 -104.000000 
296.000000 -184.000000 -120.000000 
312.000000 -184.000000 -120.000000 
296.000000 -168.000000 -120.000000 
312.000000 -168.000000 -120.000000 
264.000000 -152.000000 -120.000000 
280.000000 -152.000000 -120.000000 
264.000000 -136.000000 -120.000000 
264.000000 -152.000000 -104.000000 
280.000000 -136.000000 -120.000000 
280.000000 -152.000000 -104.000000 
264.000000 -136.000000 -104.000000 
296.000000 -152.000000 -120.000000 
312.000000 -152.000000 -120.000000 
296.000000 -136.000000 -120.000000 
312.000000 -136.000000 -120.000000 
328.000000 -168.000000 -120.000000 
264.000000 -120.000000 -120.000000 
280.000000 -120.000000 -120.000000 
264.000000 -104.000000 -120.000000 
264.000000 -120.000000 -104.000000 
280.000000 -104.000000 -120.000000 
296.000000 -120.000000 -120.000000 
-8.000000 8.000000 -440.000000 
-8.000000 8.000000 -424.000000 
-8.000000 8.000000 -408.000000 
-8.000000 8.000000 -392.000000 
-8.000000 8.000000 -376.000000 
-8.000000 8.000000 -360.000000 
-8.000000 8.000000 -344.000000 
-8.000000 8.000000 -328.000000 
-24.000000 8.000000 -312.000000 
-8.000000 8.000000 -312.000000 
-24.000000 24.000000 -312.000000 
-8.000000 24.000000 -312.000000 
-8.000000 8.000000 -296.000000 
-24.000000 24.000000 -296.000000 
-8.000000 24.000000 -296.000000 
-8.000000 40.000000 -296.000000 
-8.000000 56.000000 -296.000000 
-8.000000 8.000000 -280.000000 
-8.000000 8.000000 -264.000000 
-8.000000 56.000000 -280.000000 
-8.000000 72.000000 -280.000000 
-504.000000 184.000000 -120.000000 
-504.000000 184.000000 -104.000000 
-488.000000 184.000000 -88.000000 
-488.000000 184.000000 -72.000000 
-472.000000 184.000000 -72.000000 
-488.000000 184.000000 -56.000000 
-472.000000 168.000000 -56.000000 
-472.000000 184.000000 -56.000000 
-472.000000 168.000000 -40.000000 
-456.000000 168.000000 -40.000000 
-472.000000 184.000000 -40.000000 
-456.000000 184.000000 -40.000000 
-456.000000 152.000000 -8.000000 
-472.000000 168.000000 -24.000000 
-456.000000 168.000000 -24.000000 
-472.000000 184.000000 -24.000000 
-472.000000 168.000000 -8.000000 
-456.000000 184.000000 -24.000000 
-456.000000 168.000000 -8.000000 
-456.000000 184.000000 -8.000000 
-440.000000 152.000000 -8.000000 
-440.000000 168.000000 -24.000000 
-440.000000 184.000000 -24.000000 
-440.000000 168.000000 -8.000000 
-440.000000 184.000000 -8.000000 
-8.000000 8.000000 -232.000000 
-136.000000 24.000000 -8.000000 
-136.000000 40.000000 -8.000000 
-72.000000 8.000000 -72.000000 
-40.000000 8.000000 -104.000000 
-24.000000 8.000000 -104.000000 
-8.000000 8.000000 -104.000000 
-56.000000 8.000000 -88.000000 
-40.000000 8.000000 -88.000000 
-56.000000 8.000000 -72.000000 
-40.000000 8.000000 -72.000000 
-56.000000 24.000000 -72.000000 
-24.000000 8.000000 -88.000000 
-8.000000 8.000000 -88.000000 
-24.000000 8.000000 -72.000000 
-72.000000 8.000000 -56.000000 
-88.000000 8.000000 -40.000000 
-72.000000 24.000000 -56.000000 
-72.000000 8.000000 -40.000000 
-88.000000 24.000000 -40.000000 
-72.000000 24.000000 -40.000000 
-104.000000 8.000000 -24.000000 
-120.000000 8.000000 -8.000000 
-104.000000 24.000000 -24.000000 
-104.000000 8.000000 -8.000000 
-120.000000 24.000000 -8.000000 
-104.000000 24.000000 -8.000000 
-72.000000 40.000000 -40.000000 
-88.000000 8.000000 -24.000000 
-72.000000 8.000000 -24.000000 
-88.000000 24.000000 -24.000000 
-88.000000 8.000000 -8.000000 
-72.000000 24.000000 -24.000000 
-88.000000 24.000000 -8.000000 
-104.000000 40.000000 -24.000000 
-120.000000 40.000000 -8.000000 
-104.000000 40.000000 -8.000000 
-88.000000 40.000000 -24.000000 
-72.000000 40.000000 -24.000000 
-88.000000 40.000000 -8.000000 
-56.000000 8.000000 -56.000000 
-40.000000 8.000000 -56.000000 
-56.000000 24.000000 -56.000000 
-56.000000 8.000000 -40.000000 
-56.000000 24.000000 -40.000000 
-8.000000 -40.000000 8.000000 
-24.000000 -40.000000 24.000000 
-8.000000 -40.000000 24.000000 
-24.000000 -24.000000 8.000000 
-8.000000 -24.000000 8.000000 
-24.000000 -8.000000 8.000000 
-24.000000 -24.000000 24.000000 
-8.000000 -8.000000 8.000000 
-8.000000 -24.000000 24.000000 
-24.000000 -8.000000 24.000000 
-8.000000 -8.000000 24.000000 
-24.000000 -40.000000 40.000000 
-8.000000 -40.000000 40.000000 
-8.000000 -56.000000 56.000000 
-24.000000 -40.000000 56.000000 
-8.000000 -40.000000 56.000000 
-24.000000 -24.000000 40.000000 
-8.000000 -24.000000 40.000000 
-24.000000 -8.000000 40.000000 
-24.000000 -24.000000 56.000000 
-8.000000 -8.000000 40.000000 
-8.000000 -24.000000 56.000000 
-24.000000 -8.000000 56.000000 
-8.000000 -8.000000 56.000000 
-8.000000 -56.000000 72.000000 
-24.000000 -40.000000 72.000000 
-8.000000 -40.000000 72.000000 
-8.000000 -56.000000 88.000000 
-24.000000 -40.000000 88.000000 
-8.000000 -40.000000 88.000000 
-24.000000 -24.000000 72.000000 
-8.000000 -24.000000 72.000000 
-24.000000 -24.000000 88.000000 
-8.000000 -8.000000 72.000000 
-8.000000 -24.000000 88.000000 
-8.000000 -8.000000 88.000000 
-8.000000 -56.000000 104.000000 
-24.000000 -40.000000 104.000000 
-8.000000 -40.000000 104.000000 
-8.000000 -56.000000 120.000000 
-8.000000 -40.000000 120.000000 
-24.000000 -24.000000 104.000000 
-8.000000 -24.000000 104.000000 
-24.000000 -24.000000 120.000000 
-8.000000 -8.000000 104.000000 
-8.000000 -24.000000 120.000000 
-8.000000 -8.000000 120.000000 
-24.000000 -56.000000 152.000000 
-8.000000 -40.000000 136.000000 
-24.000000 -40.000000 152.000000 
-8.000000 -40.000000 152.000000 
-24.000000 -24.000000 136.000000 
-8.000000 -24.000000 136.000000 
-24.000000 -24.000000 152.000000 
-8.000000 -8.000000 136.000000 
-8.000000 -24.000000 152.000000 
-8.000000 -8.000000 152.000000 
-24.000000 -56.000000 168.000000 
-24.000000 -40.000000 168.000000 
-24.000000 -56.000000 184.000000 
-8.000000 -40.000000 168.000000 
-24.000000 -40.000000 184.000000 
-8.000000 -40.000000 184.000000 
-40.000000 -24.000000 168.000000 
-40.000000 -8.000000 184.000000 
-24.000000 -24.000000 168.000000 
-8.000000 -24.000000 168.000000 
-24.000000 -8.000000 168.000000 
-24.000000 -24.000000 184.000000 
-8.000000 -8.000000 168.000000 
-8.000000 -24.000000 184.000000 
-24.000000 -8.000000 184.000000 
-8.000000 -8.000000 184.000000 
-72.000000 -40.000000 248.000000 
-72.000000 -24.000000 248.000000 
-72.000000 -8.000000 248.000000 
-40.000000 -56.000000 200.000000 
-40.000000 -40.000000 200.000000 
-56.000000 -40.000000 216.000000 
-40.000000 -40.000000 216.000000 
-24.000000 -40.000000 200.000000 
-8.000000 -40.000000 200.000000 
-24.000000 -40.000000 216.000000 
-8.000000 -40.000000 216.000000 
-40.000000 -24.000000 200.000000 
-56.000000 -24.000000 216.000000 
-40.000000 -8.000000 200.000000 
-40.000000 -24.000000 216.000000 
-56.000000 -8.000000 216.000000 
-40.000000 -8.000000 216.000000 
-56.000000 -40.000000 232.000000 
-56.000000 -56.000000 248.000000 
-40.000000 -40.000000 232.000000 
-56.000000 -40.000000 248.000000 
-40.000000 -40.000000 248.000000 
-24.000000 -24.000000 200.000000 
-8.000000 -24.000000 200.000000 
-24.000000 -8.000000 200.000000 
-24.000000 -24.000000 216.000000 
-8.000000 -8.000000 200.000000 
-8.000000 -24.000000 216.000000 
-24.000000 -8.000000 216.000000 
-8.000000 -8.000000 216.000000 
-24.000000 -40.000000 232.000000 
-8.000000 -40.000000 232.000000 
-24.000000 -40.000000 248.000000 
-8.000000 -40.000000 248.000000 
-56.000000 -24.000000 232.000000 
-40.000000 -24.000000 232.000000 
-56.000000 -8.000000 232.000000 
-56.000000 -24.000000 248.000000 
-40.000000 -8.000000 232.000000 
-40.000000 -24.000000 248.000000 
-56.000000 -8.000000 248.000000 
-40.000000 -8.000000 248.000000 
-24.000000 -24.000000 232.000000 
-8.000000 -24.000000 232.000000 
-24.000000 -8.000000 232.000000 
-24.000000 -24.000000 248.000000 
-8.000000 -8.000000 232.000000 
-8.000000 -24.000000 248.000000 
-24.000000 -8.000000 248.000000 
-8.000000 -8.000000 248.000000 
-136.000000 -24.000000 328.000000 
-152.000000 -8.000000 328.000000 
-136.000000 -8.000000 328.000000 
-168.000000 -8.000000 376.000000 
-8.000000 -72.000000 296.000000 
-24.000000 -72.000000 312.000000 
-8.000000 -72.000000 312.000000 
-72.000000 -56.000000 264.000000 
-88.000000 -40.000000 264.000000 
-72.000000 -40.000000 264.000000 
-88.000000 -40.000000 280.000000 
-104.000000 -24.000000 280.000000 
-88.000000 -24.000000 264.000000 
-72.000000 -24.000000 264.000000 
-88.000000 -8.000000 264.000000 
-88.000000 -24.000000 280.000000 
-72.000000 -8.000000 264.000000 
-72.000000 -24.000000 280.000000 
-88.000000 -8.000000 280.000000 
-72.000000 -8.000000 280.000000 
-104.000000 -24.000000 296.000000 
-104.000000 -8.000000 296.000000 
-104.000000 -24.000000 312.000000 
-104.000000 -8.000000 312.000000 
-88.000000 -24.000000 296.000000 
-88.000000 -8.000000 296.000000 
-88.000000 -24.000000 312.000000 
-72.000000 -8.000000 296.000000 
-88.000000 -8.000000 312.000000 
-56.000000 -40.000000 264.000000 
-40.000000 -40.000000 264.000000 
-40.000000 -56.000000 280.000000 
-56.000000 -40.000000 280.000000 
-40.000000 -40.000000 280.000000 
-24.000000 -40.000000 264.000000 
-24.000000 -56.000000 280.000000 
-8.000000 -40.000000 264.000000 
-8.000000 -56.000000 280.000000 
-24.000000 -40.000000 280.000000 
-8.000000 -40.000000 280.000000 
-56.000000 -24.000000 264.000000 
-56.000000 -8.000000 264.000000 
-40.000000 -8.000000 264.000000 
-56.000000 -8.000000 280.000000 
-24.000000 -24.000000 264.000000 
-8.000000 -24.000000 264.000000 
-24.000000 -8.000000 264.000000 
-24.000000 -24.000000 280.000000 
-8.000000 -8.000000 264.000000 
-8.000000 -24.000000 280.000000 
-24.000000 -8.000000 280.000000 
-8.000000 -8.000000 280.000000 
-24.000000 -56.000000 296.000000 
-8.000000 -56.000000 296.000000 
-24.000000 -40.000000 296.000000 
-24.000000 -56.000000 312.000000 
-8.000000 -40.000000 296.000000 
-8.000000 -56.000000 312.000000 
-24.000000 -40.000000 312.000000 
-8.000000 -40.000000 312.000000 
-24.000000 -24.000000 296.000000 
-8.000000 -24.000000 296.000000 
-24.000000 -8.000000 296.000000 
-24.000000 -24.000000 312.000000 
-8.000000 -8.000000 296.000000 
-8.000000 -24.000000 312.000000 
-24.000000 -8.000000 312.000000 
-8.000000 -8.000000 312.000000 
-24.000000 -72.000000 328.000000 
-8.000000 -72.000000 328.000000 
-24.000000 -72.000000 344.000000 
-8.000000 -72.000000 344.000000 
-40.000000 -72.000000 360.000000 
-24.000000 -72.000000 360.000000 
-8.000000 -72.000000 360.000000 
-24.000000 -72.000000 376.000000 
-8.000000 -72.000000 376.000000 
-104.000000 -40.000000 328.000000 
-120.000000 -24.000000 328.000000 
-104.000000 -24.000000 328.000000 
-120.000000 -8.000000 328.000000 
-104.000000 -8.000000 328.000000 
-88.000000 -8.000000 328.000000 
-40.000000 -56.000000 344.000000 
-40.000000 -40.000000 344.000000 
-24.000000 -56.000000 328.000000 
-8.000000 -56.000000 328.000000 
-24.000000 -40.000000 328.000000 
-24.000000 -56.000000 344.000000 
-8.000000 -40.000000 328.000000 
-8.000000 -56.000000 344.000000 
-24.000000 -40.000000 344.000000 
-8.000000 -40.000000 344.000000 
-40.000000 -24.000000 344.000000 
-40.000000 -8.000000 344.000000 
-40.000000 -56.000000 360.000000 
-40.000000 -40.000000 360.000000 
-40.000000 -56.000000 376.000000 
-40.000000 -40.000000 376.000000 
-24.000000 -24.000000 328.000000 
-8.000000 -24.000000 328.000000 
-24.000000 -8.000000 328.000000 
-24.000000 -24.000000 344.000000 
-8.000000 -8.000000 328.000000 
-8.000000 -24.000000 344.000000 
-24.000000 -8.000000 344.000000 
-8.000000 -8.000000 344.000000 
-24.000000 -56.000000 360.000000 
-8.000000 -56.000000 360.000000 
-24.000000 -40.000000 360.000000 
-24.000000 -56.000000 376.000000 
-8.000000 -40.000000 360.000000 
-8.000000 -56.000000 376.000000 
-24.000000 -40.000000 376.000000 
-8.000000 -40.000000 376.000000 
-40.000000 -24.000000 360.000000 
-40.000000 -8.000000 360.000000 
-40.000000 -24.000000 376.000000 
-40.000000 -8.000000 376.000000 
-24.000000 -24.000000 360.000000 
-8.000000 -24.000000 360.000000 
-24.000000 -8.000000 360.000000 
-24.000000 -24.000000 376.000000 
-8.000000 -8.000000 360.000000 
-8.000000 -24.000000 376.000000 
-24.000000 -8.000000 376.000000 
-8.000000 -8.000000 376.000000 
-8.000000 -136.000000 456.000000 
-8.000000 -136.000000 472.000000 
-200.000000 -8.000000 392.000000 
-184.000000 -8.000000 392.000000 
-168.000000 -8.000000 392.000000 
-72.000000 -104.000000 424.000000 
-88.000000 -104.000000 440.000000 
-72.000000 -104.000000 440.000000 
-72.000000 -88.000000 424.000000 
-88.000000 -88.000000 440.000000 
-72.000000 -72.000000 424.000000 
-72.000000 -88.000000 440.000000 
-88.000000 -72.000000 440.000000 
-72.000000 -72.000000 440.000000 
-40.000000 -72.000000 392.000000 
-56.000000 -72.000000 408.000000 
-40.000000 -72.000000 408.000000 
-56.000000 -120.000000 424.000000 
-40.000000 -120.000000 424.000000 
-56.000000 -104.000000 424.000000 
-56.000000 -120.000000 440.000000 
-40.000000 -104.000000 424.000000 
-40.000000 -120.000000 440.000000 
-56.000000 -104.000000 440.000000 
-40.000000 -104.000000 440.000000 
-8.000000 -88.000000 392.000000 
-24.000000 -72.000000 392.000000 
-8.000000 -72.000000 392.000000 
-8.000000 -88.000000 408.000000 
-24.000000 -72.000000 408.000000 
-8.000000 -72.000000 408.000000 
-24.000000 -120.000000 424.000000 
-8.000000 -120.000000 424.000000 
-24.000000 -104.000000 424.000000 
-24.000000 -120.000000 440.000000 
-8.000000 -104.000000 424.000000 
-8.000000 -120.000000 440.000000 
-24.000000 -104.000000 440.000000 
-8.000000 -104.000000 440.000000 
-56.000000 -88.000000 424.000000 
-40.000000 -88.000000 424.000000 
-56.000000 -72.000000 424.000000 
-56.000000 -88.000000 440.000000 
-40.000000 -72.000000 424.000000 
-40.000000 -88.000000 440.000000 
-56.000000 -72.000000 440.000000 
-40.000000 -72.000000 440.000000 
-24.000000 -88.000000 424.000000 
-8.000000 -88.000000 424.000000 
-24.000000 -72.000000 424.000000 
-24.000000 -88.000000 440.000000 
-8.000000 -72.000000 424.000000 
-8.000000 -88.000000 440.000000 
-24.000000 -72.000000 440.000000 
-8.000000 -72.000000 440.000000 
-72.000000 -56.000000 408.000000 
-72.000000 -40.000000 408.000000 
-72.000000 -24.000000 408.000000 
-72.000000 -8.000000 408.000000 
-88.000000 -56.000000 424.000000 
-72.000000 -56.000000 424.000000 
-88.000000 -40.000000 424.000000 
-88.000000 -56.000000 440.000000 
-72.000000 -40.000000 424.000000 
-72.000000 -56.000000 440.000000 
-72.000000 -40.000000 440.000000 
-104.000000 -8.000000 440.000000 
-88.000000 -24.000000 424.000000 
-72.000000 -24.000000 424.000000 
-88.000000 -8.000000 424.000000 
-88.000000 -24.000000 440.000000 
-72.000000 -8.000000 424.000000 
-72.000000 -24.000000 440.000000 
-88.000000 -8.000000 440.000000 
-72.000000 -8.000000 440.000000 
-88.000000 -104.000000 456.000000 
-72.000000 -104.000000 456.000000 
-88.000000 -88.000000 456.000000 
-72.000000 -88.000000 456.000000 
-88.000000 -72.000000 456.000000 
-88.000000 -104.000000 488.000000 
-88.000000 -104.000000 504.000000 
-72.000000 -72.000000 504.000000 
-56.000000 -56.000000 392.000000 
-40.000000 -56.000000 392.000000 
-56.000000 -40.000000 392.000000 
-56.000000 -56.000000 408.000000 
-40.000000 -40.000000 392.000000 
-40.000000 -56.000000 408.000000 
-56.000000 -40.000000 408.000000 
-40.000000 -40.000000 408.000000 
-24.000000 -56.000000 392.000000 
-8.000000 -56.000000 392.000000 
-24.000000 -40.000000 392.000000 
-24.000000 -56.000000 408.000000 
-8.000000 -40.000000 392.000000 
-8.000000 -56.000000 408.000000 
-24.000000 -40.000000 408.000000 
-8.000000 -40.000000 408.000000 
-56.000000 -24.000000 392.000000 
-40.000000 -24.000000 392.000000 
-56.000000 -8.000000 392.000000 
-56.000000 -24.000000 408.000000 
-40.000000 -8.000000 392.000000 
-40.000000 -24.000000 408.000000 
-56.000000 -8.000000 408.000000 
-40.000000 -8.000000 408.000000 
-56.000000 -56.000000 424.000000 
-40.000000 -56.000000 424.000000 
-56.000000 -40.000000 424.000000 
-56.000000 -56.000000 440.000000 
-40.000000 -40.000000 424.000000 
-40.000000 -56.000000 440.000000 
-56.000000 -40.000000 440.000000 
-40.000000 -40.000000 440.000000 
-24.000000 -24.000000 392.000000 
-8.000000 -24.000000 392.000000 
-24.000000 -8.000000 392.000000 
-24.000000 -24.000000 408.000000 
-8.000000 -8.000000 392.000000 
-8.000000 -24.000000 408.000000 
-24.000000 -8.000000 408.000000 
-8.000000 -8.000000 408.000000 
-24.000000 -56.000000 424.000000 
-8.000000 -56.000000 424.000000 
-24.000000 -40.000000 424.000000 
-24.000000 -56.000000 440.000000 
-8.000000 -40.000000 424.000000 
-8.000000 -56.000000 440.000000 
-24.000000 -40.000000 440.000000 
-8.000000 -40.000000 440.000000 
-56.000000 -24.000000 424.000000 
-40.000000 -24.000000 424.000000 
-56.000000 -8.000000 424.000000 
-56.000000 -24.000000 440.000000 
-40.000000 -8.000000 424.000000 
-40.000000 -24.000000 440.000000 
-56.000000 -8.000000 440.000000 
-40.000000 -8.000000 440.000000 
-24.000000 -24.000000 424.000000 
-8.000000 -24.000000 424.000000 
-24.000000 -8.000000 424.000000 
-24.000000 -24.000000 440.000000 
-8.000000 -8.000000 424.000000 
-8.000000 -24.000000 440.000000 
-24.000000 -8.000000 440.000000 
-8.000000 -8.000000 440.000000 
-56.000000 -120.000000 456.000000 
-40.000000 -120.000000 456.000000 
-56.000000 -104.000000 456.000000 
-40.000000 -104.000000 472.000000 
-24.000000 -120.000000 456.000000 
-8.000000 -120.000000 456.000000 
-24.000000 -104.000000 456.000000 
-24.000000 -120.000000 472.000000 
-8.000000 -104.000000 456.000000 
-8.000000 -120.000000 472.000000 
-24.000000 -104.000000 472.000000 
-8.000000 -104.000000 472.000000 
-40.000000 -88.000000 456.000000 
-56.000000 -72.000000 456.000000 
-40.000000 -72.000000 456.000000 
-40.000000 -88.000000 472.000000 
-56.000000 -72.000000 472.000000 
-40.000000 -72.000000 472.000000 
-40.000000 -104.000000 488.000000 
-40.000000 -104.000000 504.000000 
-24.000000 -88.000000 456.000000 
-8.000000 -88.000000 456.000000 
-24.000000 -72.000000 456.000000 
-24.000000 -88.000000 472.000000 
-8.000000 -72.000000 456.000000 
-8.000000 -88.000000 472.000000 
-24.000000 -72.000000 472.000000 
-8.000000 -72.000000 472.000000 
-24.000000 -120.000000 488.000000 
-24.000000 -104.000000 488.000000 
-24.000000 -120.000000 504.000000 
-24.000000 -104.000000 504.000000 
-56.000000 -88.000000 488.000000 
-40.000000 -88.000000 488.000000 
-56.000000 -72.000000 488.000000 
-56.000000 -88.000000 504.000000 
-40.000000 -72.000000 488.000000 
-40.000000 -88.000000 504.000000 
-56.000000 -72.000000 504.000000 
-40.000000 -72.000000 504.000000 
-24.000000 -88.000000 488.000000 
-8.000000 -88.000000 488.000000 
-24.000000 -72.000000 488.000000 
-24.000000 -88.000000 504.000000 
-8.000000 -72.000000 488.000000 
-8.000000 -88.000000 504.000000 
-24.000000 -72.000000 504.000000 
-8.000000 -72.000000 504.000000 
-72.000000 -56.000000 456.000000 
-88.000000 -40.000000 456.000000 
-72.000000 -40.000000 456.000000 
-72.000000 -56.000000 472.000000 
-88.000000 -40.000000 472.000000 
-72.000000 -40.000000 472.000000 
-104.000000 -24.000000 456.000000 
-104.000000 -8.000000 456.000000 
-104.000000 -24.000000 472.000000 
-104.000000 -8.000000 472.000000 
-104.000000 -40.000000 504.000000 
-88.000000 -24.000000 456.000000 
-72.000000 -24.000000 456.000000 
-88.000000 -8.000000 456.000000 
-88.000000 -24.000000 472.000000 
-72.000000 -8.000000 456.000000 
-72.000000 -24.000000 472.000000 
-88.000000 -8.000000 472.000000 
-72.000000 -8.000000 472.000000 
-72.000000 -56.000000 488.000000 
-88.000000 -40.000000 488.000000 
-72.000000 -40.000000 488.000000 
-72.000000 -56.000000 504.000000 
-88.000000 -40.000000 504.000000 
-72.000000 -40.000000 504.000000 
-104.000000 -24.000000 488.000000 
-104.000000 -8.000000 488.000000 
-104.000000 -24.000000 504.000000 
-120.000000 -8.000000 504.000000 
-104.000000 -8.000000 504.000000 
-88.000000 -24.000000 488.000000 
-72.000000 -24.000000 488.000000 
-88.000000 -8.000000 488.000000 
-88.000000 -24.000000 504.000000 
-72.000000 -8.000000 488.000000 
-72.000000 -24.000000 504.000000 
-88.000000 -8.000000 504.000000 
-72.000000 -8.000000 504.000000 
-56.000000 -56.000000 456.000000 
-40.000000 -56.000000 456.000000 
-56.000000 -40.000000 456.000000 
-56.000000 -56.000000 472.000000 
-40.000000 -40.000000 456.000000 
-40.000000 -56.000000 472.000000 
-56.000000 -40.000000 472.000000 
-40.000000 -40.000000 472.000000 
-24.000000 -56.000000 456.000000 
-8.000000 -56.000000 456.000000 
-24.000000 -40.000000 456.000000 
-24.000000 -56.000000 472.000000 
-8.000000 -40.000000 456.000000 
-8.000000 -56.000000 472.000000 
-24.000000 -40.000000 472.000000 
-8.000000 -40.000000 472.000000 
-56.000000 -24.000000 456.000000 
-40.000000 -24.000000 456.000000 
-56.000000 -8.000000 456.000000 
-56.000000 -24.000000 472.000000 
-40.000000 -8.000000 456.000000 
-40.000000 -24.000000 472.000000 
-56.000000 -8.000000 472.000000 
-40.000000 -8.000000 472.000000 
-56.000000 -56.000000 488.000000 
-40.000000 -56.000000 488.000000 
-56.000000 -40.000000 488.000000 
-56.000000 -56.000000 504.000000 
-40.000000 -40.000000 488.000000 
-40.000000 -56.000000 504.000000 
-56.000000 -40.000000 504.000000 
-40.000000 -40.000000 504.000000 
-24.000000 -24.000000 456.000000 
-8.000000 -24.000000 456.000000 
-24.000000 -8.000000 456.000000 
-24.000000 -24.000000 472.000000 
-8.000000 -8.000000 456.000000 
-8.000000 -24.000000 472.000000 
-24.000000 -8.000000 472.000000 
-8.000000 -8.000000 472.000000 
-24.000000 -56.000000 488.000000 
-8.000000 -56.000000 488.000000 
-24.000000 -40.000000 488.000000 
-24.000000 -56.000000 504.000000 
-8.000000 -40.000000 488.000000 
-8.000000 -56.000000 504.000000 
-24.000000 -40.000000 504.000000 
-8.000000 -40.000000 504.000000 
-56.000000 -24.000000 488.000000 
-40.000000 -24.000000 488.000000 
-56.000000 -8.000000 488.000000 
-56.000000 -24.000000 504.000000 
-40.000000 -8.000000 488.000000 
-40.000000 -24.000000 504.000000 
-56.000000 -8.000000 504.000000 
-40.000000 -8.000000 504.000000 
-24.000000 -24.000000 488.000000 
-8.000000 -24.000000 488.000000 
-24.000000 -8.000000 488.000000 
-24.000000 -24.000000 504.000000 
-8.000000 -8.000000 488.000000 
-8.000000 -24.000000 504.000000 
-24.000000 -8.000000 504.000000 
-8.000000 -8.000000 504.000000 
-264.000000 -72.000000 632.000000 
-264.000000 -56.000000 632.000000 
-264.000000 -56.000000 648.000000 
-264.000000 -56.000000 664.000000 
-264.000000 -56.000000 680.000000 
-264.000000 -40.000000 680.000000 
-264.000000 -56.000000 696.000000 
-264.000000 -40.000000 696.000000 
-264.000000 -56.000000 712.000000 
-264.000000 -40.000000 712.000000 
-264.000000 -56.000000 728.000000 
-264.000000 -40.000000 728.000000 
-104.000000 -136.000000 632.000000 
-200.000000 -104.000000 632.000000 
-248.000000 -72.000000 632.000000 
-136.000000 -8.000000 536.000000 
-136.000000 -24.000000 552.000000 
-136.000000 -8.000000 552.000000 
-136.000000 -24.000000 568.000000 
-152.000000 -8.000000 568.000000 
-152.000000 -72.000000 600.000000 
-136.000000 -120.000000 616.000000 
-152.000000 -104.000000 616.000000 
-152.000000 -104.000000 632.000000 
-136.000000 -104.000000 632.000000 
-168.000000 -88.000000 632.000000 
-152.000000 -88.000000 632.000000 
-136.000000 -72.000000 632.000000 
-216.000000 -24.000000 632.000000 
-200.000000 -24.000000 632.000000 
-200.000000 -8.000000 632.000000 
-184.000000 -56.000000 600.000000 
-184.000000 -40.000000 600.000000 
-136.000000 -40.000000 600.000000 
-184.000000 -24.000000 600.000000 
-168.000000 -8.000000 600.000000 
-168.000000 -56.000000 616.000000 
-136.000000 -24.000000 584.000000 
-136.000000 -8.000000 584.000000 
-136.000000 -24.000000 600.000000 
-152.000000 -8.000000 600.000000 
-136.000000 -56.000000 616.000000 
-152.000000 -40.000000 616.000000 
-152.000000 -56.000000 632.000000 
-136.000000 -40.000000 616.000000 
-136.000000 -56.000000 632.000000 
-152.000000 -40.000000 632.000000 
-136.000000 -40.000000 632.000000 
-184.000000 -24.000000 616.000000 
-152.000000 -24.000000 616.000000 
-136.000000 -24.000000 616.000000 
-152.000000 -24.000000 632.000000 
-136.000000 -8.000000 616.000000 
-136.000000 -24.000000 632.000000 
-152.000000 -8.000000 632.000000 
-136.000000 -8.000000 632.000000 
-72.000000 -72.000000 520.000000 
-72.000000 -88.000000 536.000000 
-88.000000 -72.000000 536.000000 
-72.000000 -72.000000 536.000000 
-72.000000 -104.000000 552.000000 
-72.000000 -104.000000 568.000000 
-104.000000 -72.000000 568.000000 
-72.000000 -88.000000 552.000000 
-88.000000 -72.000000 552.000000 
-88.000000 -88.000000 568.000000 
-72.000000 -72.000000 552.000000 
-72.000000 -88.000000 568.000000 
-88.000000 -72.000000 568.000000 
-72.000000 -72.000000 568.000000 
-40.000000 -120.000000 520.000000 
-56.000000 -104.000000 520.000000 
-40.000000 -104.000000 520.000000 
-40.000000 -120.000000 536.000000 
-56.000000 -104.000000 536.000000 
-40.000000 -104.000000 536.000000 
-24.000000 -120.000000 520.000000 
-24.000000 -104.000000 520.000000 
-24.000000 -120.000000 536.000000 
-8.000000 -104.000000 520.000000 
-24.000000 -104.000000 536.000000 
-8.000000 -104.000000 536.000000 
-56.000000 -88.000000 520.000000 
-40.000000 -88.000000 520.000000 
-56.000000 -72.000000 520.000000 
-56.000000 -88.000000 536.000000 
-40.000000 -72.000000 520.000000 
-40.000000 -88.000000 536.000000 
-56.000000 -72.000000 536.000000 
-40.000000 -72.000000 536.000000 
-56.000000 -104.000000 552.000000 
-40.000000 -104.000000 552.000000 
-56.000000 -104.000000 568.000000 
-40.000000 -104.000000 568.000000 
-24.000000 -88.000000 520.000000 
-8.000000 -88.000000 520.000000 
-24.000000 -72.000000 520.000000 
-24.000000 -88.000000 536.000000 
-8.000000 -72.000000 520.000000 
-8.000000 -88.000000 536.000000 
-24.000000 -72.000000 536.000000 
-8.000000 -72.000000 536.000000 
-24.000000 -120.000000 552.000000 
-8.000000 -120.000000 552.000000 
-24.000000 -104.000000 552.000000 
-8.000000 -104.000000 552.000000 
-56.000000 -88.000000 552.000000 
-40.000000 -88.000000 552.000000 
-56.000000 -72.000000 552.000000 
-56.000000 -88.000000 568.000000 
-40.000000 -72.000000 552.000000 
-40.000000 -88.000000 568.000000 
-56.000000 -72.000000 568.000000 
-40.000000 -72.000000 568.000000 
-24.000000 -88.000000 552.000000 
-8.000000 -88.000000 552.000000 
-24.000000 -72.000000 552.000000 
-24.000000 -88.000000 568.000000 
-8.000000 -72.000000 552.000000 
-8.000000 -88.000000 568.000000 
-24.000000 -72.000000 568.000000 
-8.000000 -72.000000 568.000000 
-104.000000 -40.000000 520.000000 
-88.000000 -56.000000 520.000000 
-72.000000 -56.000000 520.000000 
-88.000000 -56.000000 536.000000 
-72.000000 -40.000000 520.000000 
-72.000000 -56.000000 536.000000 
-88.000000 -40.000000 536.000000 
-72.000000 -40.000000 536.000000 
-120.000000 -24.000000 520.000000 
-104.000000 -24.000000 520.000000 
-120.000000 -8.000000 520.000000 
-120.000000 -24.000000 536.000000 
-104.000000 -8.000000 520.000000 
-104.000000 -24.000000 536.000000 
-120.000000 -8.000000 536.000000 
-104.000000 -8.000000 536.000000 
-120.000000 -40.000000 552.000000 
-104.000000 -56.000000 568.000000 
-120.000000 -40.000000 568.000000 
-104.000000 -40.000000 568.000000 
-88.000000 -24.000000 520.000000 
-72.000000 -24.000000 520.000000 
-88.000000 -8.000000 520.000000 
-72.000000 -24.000000 536.000000 
-72.000000 -8.000000 536.000000 
-88.000000 -56.000000 552.000000 
-72.000000 -56.000000 552.000000 
-88.000000 -40.000000 552.000000 
-88.000000 -56.000000 568.000000 
-72.000000 -40.000000 552.000000 
-72.000000 -56.000000 568.000000 
-88.000000 -40.000000 568.000000 
-72.000000 -40.000000 568.000000 
-120.000000 -24.000000 552.000000 
-120.000000 -24.000000 568.000000 
-104.000000 -8.000000 552.000000 
-120.000000 -8.000000 568.000000 
-88.000000 -24.000000 552.000000 
-72.000000 -24.000000 552.000000 
-88.000000 -8.000000 552.000000 
-88.000000 -24.000000 568.000000 
-72.000000 -8.000000 552.000000 
-72.000000 -24.000000 568.000000 
-88.000000 -8.000000 568.000000 
-72.000000 -8.000000 568.000000 
-72.000000 -120.000000 600.000000 
-104.000000 -72.000000 584.000000 
-104.000000 -88.000000 600.000000 
-120.000000 -72.000000 600.000000 
-120.000000 -120.000000 616.000000 
-104.000000 -120.000000 632.000000 
-120.000000 -104.000000 632.000000 
-104.000000 -104.000000 632.000000 
-88.000000 -88.000000 584.000000 
-72.000000 -88.000000 584.000000 
-88.000000 -72.000000 584.000000 
-88.000000 -88.000000 600.000000 
-72.000000 -72.000000 584.000000 
-72.000000 -88.000000 600.000000 
-88.000000 -72.000000 600.000000 
-72.000000 -72.000000 600.000000 
-88.000000 -120.000000 632.000000 
-72.000000 -104.000000 632.000000 
-120.000000 -72.000000 616.000000 
-104.000000 -72.000000 616.000000 
-104.000000 -88.000000 632.000000 
-120.000000 -72.000000 632.000000 
-104.000000 -72.000000 632.000000 
-88.000000 -88.000000 616.000000 
-72.000000 -88.000000 616.000000 
-88.000000 -72.000000 616.000000 
-88.000000 -88.000000 632.000000 
-72.000000 -72.000000 616.000000 
-72.000000 -88.000000 632.000000 
-88.000000 -72.000000 632.000000 
-72.000000 -72.000000 632.000000 
-56.000000 -56.000000 520.000000 
-40.000000 -56.000000 520.000000 
-56.000000 -40.000000 520.000000 
-56.000000 -56.000000 536.000000 
-40.000000 -40.000000 520.000000 
-40.000000 -56.000000 536.000000 
-56.000000 -40.000000 536.000000 
-40.000000 -40.000000 536.000000 
-24.000000 -56.000000 520.000000 
-8.000000 -56.000000 520.000000 
-24.000000 -40.000000 520.000000 
-24.000000 -56.000000 536.000000 
-8.000000 -40.000000 520.000000 
-8.000000 -56.000000 536.000000 
-24.000000 -40.000000 536.000000 
-8.000000 -40.000000 536.000000 
-56.000000 -24.000000 520.000000 
-40.000000 -24.000000 520.000000 
-56.000000 -8.000000 520.000000 
-56.000000 -24.000000 536.000000 
-40.000000 -8.000000 520.000000 
-40.000000 -24.000000 536.000000 
-56.000000 -8.000000 536.000000 
-40.000000 -8.000000 536.000000 
-56.000000 -56.000000 552.000000 
-40.000000 -56.000000 552.000000 
-56.000000 -40.000000 552.000000 
-56.000000 -56.000000 568.000000 
-40.000000 -40.000000 552.000000 
-40.000000 -56.000000 568.000000 
-56.000000 -40.000000 568.000000 
-40.000000 -40.000000 568.000000 
-24.000000 -24.000000 520.000000 
-8.000000 -24.000000 520.000000 
-24.000000 -8.000000 520.000000 
-24.000000 -24.000000 536.000000 
-8.000000 -8.000000 520.000000 
-8.000000 -24.000000 536.000000 
-24.000000 -8.000000 536.000000 
-8.000000 -8.000000 536.000000 
-24.000000 -56.000000 552.000000 
-8.000000 -56.000000 552.000000 
-24.000000 -40.000000 552.000000 
-24.000000 -56.000000 568.000000 
-8.000000 -40.000000 552.000000 
-8.000000 -56.000000 568.000000 
-24.000000 -40.000000 568.000000 
-8.000000 -40.000000 568.000000 
-56.000000 -24.000000 552.000000 
-40.000000 -24.000000 552.000000 
-56.000000 -8.000000 552.000000 
-56.000000 -24.000000 568.000000 
-40.000000 -8.000000 552.000000 
-40.000000 -24.000000 568.000000 
-56.000000 -8.000000 568.000000 
-40.000000 -8.000000 568.000000 
-24.000000 -24.000000 552.000000 
-8.000000 -24.000000 552.000000 
-24.000000 -8.000000 552.000000 
-24.000000 -24.000000 568.000000 
-8.000000 -8.000000 552.000000 
-8.000000 -24.000000 568.000000 
-24.000000 -8.000000 568.000000 
-8.000000 -8.000000 568.000000 
-56.000000 -104.000000 584.000000 
-40.000000 -104.000000 584.000000 
-56.000000 -104.000000 600.000000 
-40.000000 -104.000000 600.000000 
-24.000000 -104.000000 584.000000 
-24.000000 -104.000000 600.000000 
-56.000000 -88.000000 584.000000 
-40.000000 -88.000000 584.000000 
-56.000000 -72.000000 584.000000 
-56.000000 -88.000000 600.000000 
-40.000000 -72.000000 584.000000 
-40.000000 -88.000000 600.000000 
-56.000000 -72.000000 600.000000 
-40.000000 -72.000000 600.000000 
-56.000000 -120.000000 632.000000 
-40.000000 -104.000000 616.000000 
-56.000000 -104.000000 632.000000 
-24.000000 -88.000000 584.000000 
-8.000000 -88.000000 584.000000 
-24.000000 -72.000000 584.000000 
-24.000000 -88.000000 600.000000 
-8.000000 -72.000000 584.000000 
-8.000000 -88.000000 600.000000 
-24.000000 -72.000000 600.000000 
-8.000000 -72.000000 600.000000 
-24.000000 -104.000000 616.000000 
-24.000000 -104.000000 632.000000 
-56.000000 -88.000000 616.000000 
-40.000000 -88.000000 616.000000 
-56.000000 -72.000000 616.000000 
-56.000000 -88.000000 632.000000 
-40.000000 -72.000000 616.000000 
-40.000000 -88.000000 632.000000 
-56.000000 -72.000000 632.000000 
-40.000000 -72.000000 632.000000 
-24.000000 -88.000000 616.000000 
-8.000000 -88.000000 616.000000 
-24.000000 -72.000000 616.000000 
-24.000000 -88.000000 632.000000 
-8.000000 -72.000000 616.000000 
-24.000000 -72.000000 632.000000 
-120.000000 -56.000000 584.000000 
-104.000000 -56.000000 584.000000 
-120.000000 -40.000000 584.000000 
-120.000000 -56.000000 600.000000 
-104.000000 -40.000000 584.000000 
-120.000000 -40.000000 600.000000 
-88.000000 -56.000000 584.000000 
-72.000000 -56.000000 584.000000 
-88.000000 -40.000000 584.000000 
-88.000000 -56.000000 600.000000 
-72.000000 -40.000000 584.000000 
-72.000000 -56.000000 600.000000 
-88.000000 -40.000000 600.000000 
-72.000000 -40.000000 600.000000 
-120.000000 -24.000000 584.000000 
-104.000000 -24.000000 584.000000 
-120.000000 -8.000000 584.000000 
-120.000000 -24.000000 600.000000 
-104.000000 -8.000000 584.000000 
-120.000000 -8.000000 600.000000 
-120.000000 -56.000000 616.000000 
-104.000000 -56.000000 616.000000 
-120.000000 -40.000000 616.000000 
-120.000000 -56.000000 632.000000 
-104.000000 -40.000000 616.000000 
-104.000000 -56.000000 632.000000 
-120.000000 -40.000000 632.000000 
-104.000000 -40.000000 632.000000 
-88.000000 -24.000000 584.000000 
-72.000000 -24.000000 584.000000 
-88.000000 -8.000000 584.000000 
-88.000000 -24.000000 600.000000 
-72.000000 -8.000000 584.000000 
-72.000000 -24.000000 600.000000 
-88.000000 -8.000000 600.000000 
-72.000000 -8.000000 600.000000 
-88.000000 -56.000000 616.000000 
-72.000000 -56.000000 616.000000 
-88.000000 -40.000000 616.000000 
-88.000000 -56.000000 632.000000 
-72.000000 -40.000000 616.000000 
-72.000000 -56.000000 632.000000 
-88.000000 -40.000000 632.000000 
-72.000000 -40.000000 632.000000 
-120.000000 -24.000000 616.000000 
-104.000000 -24.000000 616.000000 
-120.000000 -8.000000 616.000000 
-120.000000 -24.000000 632.000000 
-104.000000 -8.000000 616.000000 
-104.000000 -24.000000 632.000000 
-120.000000 -8.000000 632.000000 
-104.000000 -8.000000 632.000000 
-88.000000 -24.000000 616.000000 
-72.000000 -24.000000 616.000000 
-88.000000 -8.000000 616.000000 
-88.000000 -24.000000 632.000000 
-72.000000 -8.000000 616.000000 
-72.000000 -24.000000 632.000000 
-88.000000 -8.000000 632.000000 
-72.000000 -8.000000 632.000000 
-56.000000 -56.000000 584.000000 
-40.000000 -56.000000 584.000000 
-56.000000 -40.000000 584.000000 
-56.000000 -56.000000 600.000000 
-40.000000 -40.000000 584.000000 
-40.000000 -56.000000 600.000000 
-56.000000 -40.000000 600.000000 
-40.000000 -40.000000 600.000000 
-24.000000 -56.000000 584.000000 
-8.000000 -56.000000 584.000000 
-24.000000 -40.000000 584.000000 
-24.000000 -56.000000 600.000000 
-8.000000 -40.000000 584.000000 
-8.000000 -56.000000 600.000000 
-24.000000 -40.000000 600.000000 
-8.000000 -40.000000 600.000000 
-56.000000 -24.000000 584.000000 
-40.000000 -24.000000 584.000000 
-56.000000 -8.000000 584.000000 
-56.000000 -24.000000 600.000000 
-40.000000 -8.000000 584.000000 
-40.000000 -24.000000 600.000000 
-56.000000 -8.000000 600.000000 
-40.000000 -8.000000 600.000000 
-56.000000 -56.000000 616.000000 
-40.000000 -56.000000 616.000000 
-56.000000 -40.000000 616.000000 
-56.000000 -56.000000 632.000000 
-40.000000 -40.000000 616.000000 
-40.000000 -56.000000 632.000000 
-56.000000 -40.000000 632.000000 
-40.000000 -40.000000 632.000000 
-24.000000 -24.000000 584.000000 
-8.000000 -24.000000 584.000000 
-24.000000 -8.000000 584.000000 
-24.000000 -24.000000 600.000000 
-8.000000 -8.000000 584.000000 
-8.000000 -24.000000 600.000000 
-24.000000 -8.000000 600.000000 
-24.000000 -56.000000 616.000000 
-8.000000 -56.000000 616.000000 
-24.000000 -40.000000 616.000000 
-24.000000 -56.000000 632.000000 
-24.000000 -40.000000 632.000000 
-56.000000 -24.000000 616.000000 
-40.000000 -24.000000 616.000000 
-56.000000 -8.000000 616.000000 
-56.000000 -24.000000 632.000000 
-40.000000 -8.000000 616.000000 
-40.000000 -24.000000 632.000000 
-56.000000 -8.000000 632.000000 
-40.000000 -8.000000 632.000000 
-24.000000 -24.000000 616.000000 
-24.000000 -8.000000 616.000000 
-24.000000 -24.000000 632.000000 
-104.000000 -136.000000 648.000000 
-88.000000 -136.000000 648.000000 
-72.000000 -136.000000 648.000000 
-88.000000 -136.000000 664.000000 
-88.000000 -136.000000 680.000000 
-72.000000 -136.000000 680.000000 
-88.000000 -136.000000 696.000000 
-72.000000 -136.000000 696.000000 
-248.000000 -72.000000 696.000000 
-136.000000 -120.000000 648.000000 
-136.000000 -104.000000 648.000000 
-136.000000 -104.000000 664.000000 
-168.000000 -88.000000 648.000000 
-184.000000 -72.000000 648.000000 
-168.000000 -72.000000 648.000000 
-152.000000 -88.000000 648.000000 
-136.000000 -88.000000 648.000000 
-152.000000 -88.000000 664.000000 
-136.000000 -72.000000 648.000000 
-152.000000 -72.000000 664.000000 
-136.000000 -72.000000 664.000000 
-136.000000 -120.000000 680.000000 
-136.000000 -104.000000 680.000000 
-168.000000 -88.000000 680.000000 
-152.000000 -72.000000 680.000000 
-136.000000 -72.000000 680.000000 
-216.000000 -40.000000 648.000000 
-248.000000 -56.000000 680.000000 
-248.000000 -56.000000 696.000000 
-216.000000 -24.000000 648.000000 
-216.000000 -8.000000 648.000000 
-200.000000 -8.000000 648.000000 
-248.000000 -72.000000 712.000000 
-248.000000 -72.000000 728.000000 
-168.000000 -40.000000 648.000000 
-184.000000 -40.000000 664.000000 
-152.000000 -56.000000 648.000000 
-136.000000 -56.000000 648.000000 
-152.000000 -40.000000 648.000000 
-136.000000 -40.000000 648.000000 
-152.000000 -40.000000 664.000000 
-136.000000 -40.000000 664.000000 
-168.000000 -24.000000 648.000000 
-184.000000 -24.000000 664.000000 
-168.000000 -24.000000 664.000000 
-168.000000 -8.000000 664.000000 
-168.000000 -40.000000 680.000000 
-152.000000 -24.000000 648.000000 
-136.000000 -24.000000 648.000000 
-152.000000 -8.000000 648.000000 
-152.000000 -24.000000 664.000000 
-136.000000 -8.000000 648.000000 
-136.000000 -24.000000 664.000000 
-152.000000 -8.000000 664.000000 
-136.000000 -8.000000 664.000000 
-136.000000 -40.000000 680.000000 
-136.000000 -40.000000 696.000000 
-184.000000 -24.000000 696.000000 
-168.000000 -8.000000 680.000000 
-168.000000 -24.000000 696.000000 
-184.000000 -8.000000 696.000000 
-168.000000 -8.000000 696.000000 
-152.000000 -24.000000 680.000000 
-136.000000 -24.000000 680.000000 
-152.000000 -8.000000 680.000000 
-152.000000 -24.000000 696.000000 
-136.000000 -8.000000 680.000000 
-136.000000 -24.000000 696.000000 
-152.000000 -8.000000 696.000000 
-136.000000 -8.000000 696.000000 
-248.000000 -56.000000 712.000000 
-248.000000 -40.000000 712.000000 
-248.000000 -56.000000 728.000000 
-232.000000 -56.000000 728.000000 
-248.000000 -40.000000 728.000000 
-232.000000 -40.000000 728.000000 
-200.000000 -56.000000 728.000000 
-216.000000 -40.000000 728.000000 
-200.000000 -40.000000 728.000000 
-248.000000 -24.000000 728.000000 
-232.000000 -24.000000 728.000000 
-248.000000 -56.000000 744.000000 
-232.000000 -56.000000 744.000000 
-248.000000 -40.000000 744.000000 
-232.000000 -40.000000 744.000000 
-216.000000 -24.000000 728.000000 
-200.000000 -24.000000 728.000000 
-216.000000 -8.000000 728.000000 
-200.000000 -8.000000 728.000000 
-216.000000 -56.000000 744.000000 
-200.000000 -56.000000 744.000000 
-216.000000 -40.000000 744.000000 
-200.000000 -40.000000 744.000000 
-248.000000 -24.000000 744.000000 
-232.000000 -24.000000 744.000000 
-232.000000 -8.000000 744.000000 
-216.000000 -24.000000 744.000000 
-200.000000 -24.000000 744.000000 
-216.000000 -8.000000 744.000000 
-200.000000 -8.000000 744.000000 
-184.000000 -56.000000 728.000000 
-168.000000 -40.000000 712.000000 
-168.000000 -56.000000 728.000000 
-184.000000 -40.000000 728.000000 
-168.000000 -40.000000 728.000000 
