-15.000000 27.000000 489.000000 
-9.000000 27.000000 483.000000 
-3.000000 27.000000 483.000000 
-9.000000 27.000000 489.000000 
-3.000000 33.000000 483.000000 
-3.000000 27.000000 489.000000 
-3.000000 33.000000 489.000000 
-21.000000 39.000000 483.000000 
-15.000000 39.000000 483.000000 
-21.000000 45.000000 483.000000 
-21.000000 39.000000 489.000000 
-15.000000 45.000000 483.000000 
-21.000000 45.000000 489.000000 
-15.000000 45.000000 489.000000 
-15.000000 27.000000 495.000000 
-21.000000 27.000000 501.000000 
-15.000000 27.000000 501.000000 
-21.000000 33.000000 501.000000 
-15.000000 33.000000 501.000000 
-9.000000 45.000000 483.000000 
-9.000000 45.000000 489.000000 
-9.000000 27.000000 495.000000 
-3.000000 27.000000 495.000000 
-9.000000 33.000000 495.000000 
-9.000000 27.000000 501.000000 
-3.000000 33.000000 495.000000 
-3.000000 27.000000 501.000000 
-9.000000 33.000000 501.000000 
-3.000000 33.000000 501.000000 
-21.000000 39.000000 495.000000 
-21.000000 45.000000 495.000000 
-21.000000 39.000000 501.000000 
-15.000000 45.000000 495.000000 
-21.000000 45.000000 501.000000 
-15.000000 45.000000 501.000000 
-21.000000 3.000000 507.000000 
-15.000000 3.000000 507.000000 
-21.000000 9.000000 507.000000 
-21.000000 3.000000 513.000000 
-15.000000 9.000000 507.000000 
-15.000000 3.000000 513.000000 
-21.000000 9.000000 513.000000 
-15.000000 9.000000 513.000000 
-9.000000 3.000000 507.000000 
-3.000000 3.000000 507.000000 
-9.000000 9.000000 507.000000 
-9.000000 3.000000 513.000000 
-3.000000 9.000000 507.000000 
-3.000000 3.000000 513.000000 
-9.000000 9.000000 513.000000 
-3.000000 9.000000 513.000000 
-21.000000 15.000000 507.000000 
-15.000000 15.000000 507.000000 
-21.000000 21.000000 507.000000 
-21.000000 15.000000 513.000000 
-15.000000 21.000000 507.000000 
-15.000000 15.000000 513.000000 
-21.000000 21.000000 513.000000 
-15.000000 21.000000 513.000000 
-21.000000 3.000000 519.000000 
-15.000000 3.000000 519.000000 
-21.000000 9.000000 519.000000 
-21.000000 3.000000 525.000000 
-15.000000 9.000000 519.000000 
-15.000000 3.000000 525.000000 
-21.000000 9.000000 525.000000 
-15.000000 9.000000 525.000000 
-9.000000 15.000000 507.000000 
-3.000000 15.000000 507.000000 
-9.000000 21.000000 507.000000 
-9.000000 15.000000 513.000000 
-3.000000 21.000000 507.000000 
-3.000000 15.000000 513.000000 
-9.000000 21.000000 513.000000 
-3.000000 21.000000 513.000000 
-9.000000 3.000000 519.000000 
-3.000000 3.000000 519.000000 
-9.000000 9.000000 519.000000 
-9.000000 3.000000 525.000000 
-3.000000 9.000000 519.000000 
-3.000000 3.000000 525.000000 
-9.000000 9.000000 525.000000 
-3.000000 9.000000 525.000000 
-21.000000 15.000000 519.000000 
-15.000000 15.000000 519.000000 
-21.000000 21.000000 519.000000 
-21.000000 15.000000 525.000000 
-15.000000 21.000000 519.000000 
-15.000000 15.000000 525.000000 
-21.000000 21.000000 525.000000 
-15.000000 21.000000 525.000000 
-9.000000 15.000000 519.000000 
-3.000000 15.000000 519.000000 
-9.000000 21.000000 519.000000 
-9.000000 15.000000 525.000000 
-3.000000 21.000000 519.000000 
-3.000000 15.000000 525.000000 
-9.000000 21.000000 525.000000 
-3.000000 21.000000 525.000000 
-45.000000 27.000000 507.000000 
-39.000000 33.000000 507.000000 
-27.000000 27.000000 507.000000 
-33.000000 27.000000 513.000000 
-27.000000 27.000000 513.000000 
-27.000000 33.000000 513.000000 
-39.000000 39.000000 507.000000 
-39.000000 45.000000 513.000000 
-39.000000 27.000000 519.000000 
-39.000000 27.000000 525.000000 
-33.000000 39.000000 507.000000 
-33.000000 45.000000 507.000000 
-27.000000 45.000000 507.000000 
-33.000000 27.000000 519.000000 
-27.000000 27.000000 519.000000 
-33.000000 33.000000 519.000000 
-33.000000 27.000000 525.000000 
-27.000000 33.000000 519.000000 
-27.000000 27.000000 525.000000 
-33.000000 33.000000 525.000000 
-27.000000 33.000000 525.000000 
-27.000000 39.000000 525.000000 
-21.000000 27.000000 507.000000 
-15.000000 27.000000 507.000000 
-21.000000 33.000000 507.000000 
-21.000000 27.000000 513.000000 
-15.000000 33.000000 507.000000 
-15.000000 27.000000 513.000000 
-21.000000 33.000000 513.000000 
-15.000000 33.000000 513.000000 
-9.000000 27.000000 507.000000 
-3.000000 27.000000 507.000000 
-9.000000 33.000000 507.000000 
-9.000000 27.000000 513.000000 
-3.000000 33.000000 507.000000 
-3.000000 27.000000 513.000000 
-9.000000 33.000000 513.000000 
-15.000000 39.000000 507.000000 
-21.000000 39.000000 513.000000 
-21.000000 27.000000 519.000000 
-15.000000 27.000000 519.000000 
-21.000000 33.000000 519.000000 
-21.000000 27.000000 525.000000 
-15.000000 33.000000 519.000000 
-15.000000 27.000000 525.000000 
-21.000000 33.000000 525.000000 
-15.000000 33.000000 525.000000 
-9.000000 39.000000 507.000000 
-9.000000 45.000000 507.000000 
-9.000000 27.000000 519.000000 
-3.000000 27.000000 519.000000 
-9.000000 33.000000 519.000000 
-9.000000 27.000000 525.000000 
-3.000000 33.000000 519.000000 
-3.000000 27.000000 525.000000 
-9.000000 33.000000 525.000000 
-3.000000 33.000000 525.000000 
-21.000000 39.000000 519.000000 
-15.000000 39.000000 519.000000 
-21.000000 39.000000 525.000000 
-15.000000 39.000000 525.000000 
-9.000000 39.000000 525.000000 
-93.000000 51.000000 483.000000 
-87.000000 51.000000 483.000000 
-93.000000 51.000000 489.000000 
-87.000000 51.000000 489.000000 
-93.000000 57.000000 489.000000 
-87.000000 57.000000 489.000000 
-81.000000 51.000000 483.000000 
-75.000000 51.000000 483.000000 
-81.000000 57.000000 483.000000 
-81.000000 51.000000 489.000000 
-75.000000 57.000000 483.000000 
-75.000000 51.000000 489.000000 
-81.000000 57.000000 489.000000 
-75.000000 57.000000 489.000000 
-93.000000 51.000000 495.000000 
-87.000000 51.000000 495.000000 
-93.000000 57.000000 495.000000 
-93.000000 51.000000 501.000000 
-87.000000 57.000000 495.000000 
-87.000000 51.000000 501.000000 
-93.000000 57.000000 501.000000 
-87.000000 57.000000 501.000000 
-81.000000 51.000000 495.000000 
-75.000000 51.000000 495.000000 
-81.000000 57.000000 495.000000 
-81.000000 51.000000 501.000000 
-75.000000 57.000000 495.000000 
-75.000000 51.000000 501.000000 
-81.000000 57.000000 501.000000 
-75.000000 57.000000 501.000000 
-75.000000 63.000000 495.000000 
-81.000000 63.000000 501.000000 
-75.000000 63.000000 501.000000 
-69.000000 51.000000 483.000000 
-69.000000 57.000000 483.000000 
-69.000000 51.000000 489.000000 
-69.000000 57.000000 489.000000 
-57.000000 51.000000 483.000000 
-51.000000 51.000000 483.000000 
-57.000000 57.000000 483.000000 
-57.000000 51.000000 489.000000 
-51.000000 57.000000 483.000000 
-51.000000 51.000000 489.000000 
-57.000000 57.000000 489.000000 
-51.000000 57.000000 489.000000 
-63.000000 57.000000 501.000000 
-51.000000 63.000000 483.000000 
-57.000000 63.000000 489.000000 
-51.000000 63.000000 489.000000 
-57.000000 51.000000 495.000000 
-57.000000 57.000000 495.000000 
-57.000000 51.000000 501.000000 
-51.000000 57.000000 495.000000 
-57.000000 57.000000 501.000000 
-63.000000 63.000000 495.000000 
-63.000000 63.000000 501.000000 
-57.000000 63.000000 495.000000 
-51.000000 63.000000 495.000000 
-57.000000 63.000000 501.000000 
-51.000000 63.000000 501.000000 
-51.000000 69.000000 501.000000 
-93.000000 51.000000 507.000000 
-87.000000 51.000000 507.000000 
-93.000000 57.000000 507.000000 
-93.000000 51.000000 513.000000 
-87.000000 57.000000 507.000000 
-87.000000 51.000000 513.000000 
-93.000000 57.000000 513.000000 
-87.000000 57.000000 513.000000 
-81.000000 51.000000 507.000000 
-81.000000 57.000000 507.000000 
-81.000000 51.000000 513.000000 
-81.000000 57.000000 513.000000 
-93.000000 63.000000 507.000000 
-87.000000 63.000000 507.000000 
-93.000000 63.000000 513.000000 
-87.000000 63.000000 513.000000 
-93.000000 51.000000 519.000000 
-87.000000 51.000000 519.000000 
-93.000000 57.000000 519.000000 
-93.000000 51.000000 525.000000 
-87.000000 57.000000 519.000000 
-87.000000 51.000000 525.000000 
-93.000000 57.000000 525.000000 
-87.000000 57.000000 525.000000 
-81.000000 63.000000 513.000000 
-81.000000 51.000000 519.000000 
-81.000000 57.000000 519.000000 
-93.000000 63.000000 519.000000 
-87.000000 63.000000 519.000000 
-93.000000 63.000000 525.000000 
-87.000000 69.000000 519.000000 
-87.000000 63.000000 525.000000 
-93.000000 69.000000 525.000000 
-87.000000 69.000000 525.000000 
-81.000000 63.000000 519.000000 
-63.000000 51.000000 507.000000 
-69.000000 57.000000 519.000000 
-69.000000 57.000000 525.000000 
-69.000000 63.000000 519.000000 
-69.000000 63.000000 525.000000 
-93.000000 15.000000 531.000000 
-93.000000 21.000000 531.000000 
-87.000000 21.000000 531.000000 
-93.000000 21.000000 537.000000 
-63.000000 3.000000 531.000000 
-63.000000 3.000000 537.000000 
-63.000000 9.000000 537.000000 
-57.000000 3.000000 531.000000 
-51.000000 3.000000 531.000000 
-57.000000 9.000000 531.000000 
-57.000000 3.000000 537.000000 
-51.000000 9.000000 531.000000 
-51.000000 3.000000 537.000000 
-57.000000 9.000000 537.000000 
-51.000000 9.000000 537.000000 
-63.000000 3.000000 543.000000 
-69.000000 3.000000 549.000000 
-63.000000 9.000000 543.000000 
-63.000000 3.000000 549.000000 
-69.000000 9.000000 549.000000 
-63.000000 9.000000 549.000000 
-57.000000 15.000000 531.000000 
-51.000000 15.000000 531.000000 
-57.000000 15.000000 537.000000 
-51.000000 21.000000 531.000000 
-51.000000 15.000000 537.000000 
-57.000000 21.000000 537.000000 
-51.000000 21.000000 537.000000 
-57.000000 3.000000 543.000000 
-51.000000 3.000000 543.000000 
-57.000000 9.000000 543.000000 
-57.000000 3.000000 549.000000 
-51.000000 9.000000 543.000000 
-51.000000 3.000000 549.000000 
-57.000000 9.000000 549.000000 
-51.000000 9.000000 549.000000 
-63.000000 15.000000 543.000000 
-63.000000 15.000000 549.000000 
-63.000000 21.000000 549.000000 
-57.000000 15.000000 543.000000 
-51.000000 15.000000 543.000000 
-57.000000 21.000000 543.000000 
-57.000000 15.000000 549.000000 
-51.000000 21.000000 543.000000 
-51.000000 15.000000 549.000000 
-57.000000 21.000000 549.000000 
-51.000000 21.000000 549.000000 
-93.000000 27.000000 531.000000 
-87.000000 27.000000 531.000000 
-93.000000 33.000000 531.000000 
-93.000000 27.000000 537.000000 
-87.000000 33.000000 531.000000 
-87.000000 27.000000 537.000000 
-93.000000 33.000000 537.000000 
-87.000000 33.000000 537.000000 
-81.000000 33.000000 531.000000 
-93.000000 39.000000 531.000000 
-87.000000 39.000000 531.000000 
-93.000000 45.000000 531.000000 
-93.000000 39.000000 537.000000 
-87.000000 45.000000 531.000000 
-87.000000 39.000000 537.000000 
-93.000000 45.000000 537.000000 
-87.000000 45.000000 537.000000 
-93.000000 27.000000 543.000000 
-93.000000 33.000000 543.000000 
-93.000000 33.000000 549.000000 
-93.000000 39.000000 543.000000 
-87.000000 39.000000 543.000000 
-93.000000 45.000000 543.000000 
-93.000000 39.000000 549.000000 
-87.000000 45.000000 543.000000 
-93.000000 45.000000 549.000000 
-87.000000 45.000000 549.000000 
-75.000000 3.000000 561.000000 
-75.000000 9.000000 561.000000 
-81.000000 3.000000 567.000000 
-75.000000 3.000000 567.000000 
-81.000000 3.000000 573.000000 
-75.000000 9.000000 567.000000 
-75.000000 3.000000 573.000000 
-81.000000 9.000000 573.000000 
-75.000000 9.000000 573.000000 
-75.000000 15.000000 567.000000 
-81.000000 15.000000 573.000000 
-75.000000 21.000000 567.000000 
-75.000000 15.000000 573.000000 
-75.000000 21.000000 573.000000 
-51.000000 27.000000 537.000000 
-51.000000 27.000000 543.000000 
-57.000000 27.000000 549.000000 
-51.000000 27.000000 549.000000 
-51.000000 33.000000 549.000000 
-69.000000 3.000000 555.000000 
-63.000000 3.000000 555.000000 
-69.000000 9.000000 555.000000 
-69.000000 3.000000 561.000000 
-63.000000 9.000000 555.000000 
-63.000000 3.000000 561.000000 
-69.000000 9.000000 561.000000 
-63.000000 9.000000 561.000000 
-57.000000 3.000000 555.000000 
-51.000000 3.000000 555.000000 
-57.000000 9.000000 555.000000 
-57.000000 3.000000 561.000000 
-51.000000 9.000000 555.000000 
-51.000000 3.000000 561.000000 
-57.000000 9.000000 561.000000 
-51.000000 9.000000 561.000000 
-69.000000 15.000000 555.000000 
-63.000000 15.000000 555.000000 
-69.000000 21.000000 555.000000 
-69.000000 15.000000 561.000000 
-63.000000 21.000000 555.000000 
-63.000000 15.000000 561.000000 
-69.000000 21.000000 561.000000 
-63.000000 21.000000 561.000000 
-69.000000 3.000000 567.000000 
-63.000000 3.000000 567.000000 
-69.000000 9.000000 567.000000 
-69.000000 3.000000 573.000000 
-63.000000 9.000000 567.000000 
-63.000000 3.000000 573.000000 
-69.000000 9.000000 573.000000 
-63.000000 9.000000 573.000000 
-57.000000 15.000000 555.000000 
-51.000000 15.000000 555.000000 
-57.000000 21.000000 555.000000 
-57.000000 15.000000 561.000000 
-51.000000 21.000000 555.000000 
-51.000000 15.000000 561.000000 
-57.000000 21.000000 561.000000 
-51.000000 21.000000 561.000000 
-57.000000 3.000000 567.000000 
-51.000000 3.000000 567.000000 
-57.000000 9.000000 567.000000 
-57.000000 3.000000 573.000000 
-51.000000 9.000000 567.000000 
-57.000000 9.000000 573.000000 
-69.000000 15.000000 567.000000 
-63.000000 15.000000 567.000000 
-69.000000 21.000000 567.000000 
-69.000000 15.000000 573.000000 
-63.000000 21.000000 567.000000 
-63.000000 15.000000 573.000000 
-69.000000 21.000000 573.000000 
-63.000000 21.000000 573.000000 
-57.000000 15.000000 567.000000 
-51.000000 15.000000 567.000000 
-57.000000 21.000000 567.000000 
-57.000000 15.000000 573.000000 
-51.000000 21.000000 567.000000 
-51.000000 15.000000 573.000000 
-57.000000 21.000000 573.000000 
-51.000000 21.000000 573.000000 
-93.000000 39.000000 555.000000 
-93.000000 45.000000 555.000000 
-93.000000 45.000000 561.000000 
-75.000000 27.000000 573.000000 
-75.000000 33.000000 573.000000 
-63.000000 27.000000 555.000000 
-69.000000 27.000000 561.000000 
-63.000000 27.000000 561.000000 
-63.000000 33.000000 561.000000 
-57.000000 27.000000 555.000000 
-51.000000 27.000000 555.000000 
-57.000000 33.000000 555.000000 
-57.000000 27.000000 561.000000 
-51.000000 33.000000 555.000000 
-51.000000 27.000000 561.000000 
-57.000000 33.000000 561.000000 
-51.000000 33.000000 561.000000 
-69.000000 27.000000 567.000000 
-63.000000 27.000000 567.000000 
-69.000000 33.000000 567.000000 
-69.000000 27.000000 573.000000 
-63.000000 33.000000 567.000000 
-63.000000 27.000000 573.000000 
-69.000000 33.000000 573.000000 
-63.000000 33.000000 573.000000 
-51.000000 39.000000 555.000000 
-51.000000 39.000000 561.000000 
-51.000000 45.000000 561.000000 
-57.000000 27.000000 567.000000 
-51.000000 27.000000 567.000000 
-57.000000 33.000000 567.000000 
-57.000000 27.000000 573.000000 
-51.000000 33.000000 567.000000 
-51.000000 27.000000 573.000000 
-57.000000 33.000000 573.000000 
-51.000000 33.000000 573.000000 
-63.000000 39.000000 567.000000 
-69.000000 39.000000 573.000000 
-63.000000 39.000000 573.000000 
-63.000000 45.000000 573.000000 
-57.000000 39.000000 567.000000 
-51.000000 39.000000 567.000000 
-57.000000 39.000000 573.000000 
-45.000000 57.000000 483.000000 
-27.000000 51.000000 489.000000 
-45.000000 63.000000 483.000000 
-45.000000 63.000000 489.000000 
-27.000000 51.000000 495.000000 
-27.000000 57.000000 495.000000 
-27.000000 51.000000 501.000000 
-27.000000 57.000000 501.000000 
-21.000000 51.000000 483.000000 
-15.000000 51.000000 483.000000 
-21.000000 57.000000 483.000000 
-21.000000 51.000000 489.000000 
-15.000000 57.000000 483.000000 
-15.000000 51.000000 489.000000 
-21.000000 57.000000 489.000000 
-15.000000 57.000000 489.000000 
-9.000000 51.000000 483.000000 
-9.000000 57.000000 483.000000 
-9.000000 51.000000 489.000000 
-9.000000 57.000000 489.000000 
-21.000000 63.000000 483.000000 
-15.000000 63.000000 483.000000 
-21.000000 63.000000 489.000000 
-15.000000 69.000000 483.000000 
-15.000000 63.000000 489.000000 
-15.000000 69.000000 489.000000 
-21.000000 51.000000 495.000000 
-15.000000 51.000000 495.000000 
-21.000000 57.000000 495.000000 
-21.000000 51.000000 501.000000 
-15.000000 57.000000 495.000000 
-15.000000 51.000000 501.000000 
-21.000000 57.000000 501.000000 
-15.000000 57.000000 501.000000 
-9.000000 63.000000 483.000000 
-9.000000 69.000000 483.000000 
-9.000000 63.000000 489.000000 
-9.000000 69.000000 489.000000 
-9.000000 51.000000 495.000000 
-9.000000 57.000000 495.000000 
-9.000000 51.000000 501.000000 
-21.000000 63.000000 495.000000 
-15.000000 63.000000 495.000000 
-21.000000 69.000000 495.000000 
-15.000000 69.000000 495.000000 
-9.000000 63.000000 495.000000 
-9.000000 69.000000 495.000000 
-33.000000 51.000000 507.000000 
-27.000000 51.000000 507.000000 
-27.000000 57.000000 507.000000 
-21.000000 51.000000 507.000000 
-45.000000 3.000000 531.000000 
-39.000000 3.000000 531.000000 
-45.000000 9.000000 531.000000 
-45.000000 3.000000 537.000000 
-39.000000 9.000000 531.000000 
-39.000000 3.000000 537.000000 
-45.000000 9.000000 537.000000 
-39.000000 9.000000 537.000000 
-33.000000 3.000000 531.000000 
-27.000000 3.000000 531.000000 
-33.000000 9.000000 531.000000 
-33.000000 3.000000 537.000000 
-27.000000 9.000000 531.000000 
-27.000000 3.000000 537.000000 
-33.000000 9.000000 537.000000 
-27.000000 9.000000 537.000000 
-45.000000 15.000000 531.000000 
-39.000000 15.000000 531.000000 
-45.000000 21.000000 531.000000 
-45.000000 15.000000 537.000000 
-39.000000 21.000000 531.000000 
-39.000000 15.000000 537.000000 
-45.000000 21.000000 537.000000 
-39.000000 21.000000 537.000000 
-45.000000 3.000000 543.000000 
-39.000000 3.000000 543.000000 
-45.000000 9.000000 543.000000 
-45.000000 3.000000 549.000000 
-39.000000 9.000000 543.000000 
-39.000000 3.000000 549.000000 
-45.000000 9.000000 549.000000 
-39.000000 9.000000 549.000000 
-33.000000 15.000000 531.000000 
-27.000000 15.000000 531.000000 
-33.000000 21.000000 531.000000 
-33.000000 15.000000 537.000000 
-27.000000 21.000000 531.000000 
-27.000000 15.000000 537.000000 
-33.000000 21.000000 537.000000 
-27.000000 21.000000 537.000000 
-33.000000 3.000000 543.000000 
-27.000000 3.000000 543.000000 
-33.000000 9.000000 543.000000 
-33.000000 3.000000 549.000000 
-27.000000 9.000000 543.000000 
-27.000000 3.000000 549.000000 
-33.000000 9.000000 549.000000 
-27.000000 9.000000 549.000000 
-45.000000 15.000000 543.000000 
-39.000000 15.000000 543.000000 
-45.000000 21.000000 543.000000 
-45.000000 15.000000 549.000000 
-39.000000 21.000000 543.000000 
-39.000000 15.000000 549.000000 
-45.000000 21.000000 549.000000 
-39.000000 21.000000 549.000000 
-33.000000 15.000000 543.000000 
-27.000000 15.000000 543.000000 
-33.000000 21.000000 543.000000 
-33.000000 15.000000 549.000000 
-27.000000 21.000000 543.000000 
-27.000000 15.000000 549.000000 
-33.000000 21.000000 549.000000 
-27.000000 21.000000 549.000000 
-21.000000 3.000000 531.000000 
-15.000000 3.000000 531.000000 
-21.000000 9.000000 531.000000 
-21.000000 3.000000 537.000000 
-15.000000 9.000000 531.000000 
-15.000000 3.000000 537.000000 
-21.000000 9.000000 537.000000 
-15.000000 9.000000 537.000000 
-9.000000 3.000000 531.000000 
-3.000000 3.000000 531.000000 
-9.000000 9.000000 531.000000 
-9.000000 3.000000 537.000000 
-3.000000 9.000000 531.000000 
-3.000000 3.000000 537.000000 
-9.000000 9.000000 537.000000 
-3.000000 9.000000 537.000000 
-21.000000 15.000000 531.000000 
-15.000000 15.000000 531.000000 
-21.000000 21.000000 531.000000 
-21.000000 15.000000 537.000000 
-15.000000 21.000000 531.000000 
-15.000000 15.000000 537.000000 
-21.000000 21.000000 537.000000 
-15.000000 21.000000 537.000000 
-21.000000 3.000000 543.000000 
-15.000000 3.000000 543.000000 
-21.000000 9.000000 543.000000 
-21.000000 3.000000 549.000000 
-15.000000 9.000000 543.000000 
-15.000000 3.000000 549.000000 
-21.000000 9.000000 549.000000 
-15.000000 9.000000 549.000000 
-9.000000 15.000000 531.000000 
-3.000000 15.000000 531.000000 
-9.000000 21.000000 531.000000 
-9.000000 15.000000 537.000000 
-3.000000 21.000000 531.000000 
-3.000000 15.000000 537.000000 
-9.000000 21.000000 537.000000 
-3.000000 21.000000 537.000000 
-9.000000 3.000000 543.000000 
-3.000000 3.000000 543.000000 
-9.000000 9.000000 543.000000 
-9.000000 3.000000 549.000000 
-3.000000 9.000000 543.000000 
-3.000000 3.000000 549.000000 
-9.000000 9.000000 549.000000 
-3.000000 9.000000 549.000000 
-21.000000 15.000000 543.000000 
-15.000000 15.000000 543.000000 
-21.000000 21.000000 543.000000 
-21.000000 15.000000 549.000000 
-15.000000 21.000000 543.000000 
-15.000000 15.000000 549.000000 
-21.000000 21.000000 549.000000 
-15.000000 21.000000 549.000000 
-9.000000 15.000000 543.000000 
-3.000000 15.000000 543.000000 
-9.000000 21.000000 543.000000 
-9.000000 15.000000 549.000000 
-3.000000 21.000000 543.000000 
-3.000000 15.000000 549.000000 
-9.000000 21.000000 549.000000 
-3.000000 21.000000 549.000000 
-45.000000 27.000000 531.000000 
-39.000000 27.000000 531.000000 
-45.000000 27.000000 537.000000 
-39.000000 33.000000 531.000000 
-39.000000 27.000000 537.000000 
-45.000000 33.000000 537.000000 
-39.000000 33.000000 537.000000 
-33.000000 27.000000 531.000000 
-27.000000 27.000000 531.000000 
-33.000000 33.000000 531.000000 
-33.000000 27.000000 537.000000 
-27.000000 33.000000 531.000000 
-27.000000 27.000000 537.000000 
-33.000000 33.000000 537.000000 
-27.000000 33.000000 537.000000 
-45.000000 27.000000 543.000000 
-39.000000 27.000000 543.000000 
-45.000000 33.000000 543.000000 
-45.000000 27.000000 549.000000 
-39.000000 33.000000 543.000000 
-39.000000 27.000000 549.000000 
-45.000000 33.000000 549.000000 
-39.000000 33.000000 549.000000 
-27.000000 39.000000 531.000000 
-33.000000 39.000000 537.000000 
-27.000000 39.000000 537.000000 
-27.000000 45.000000 537.000000 
-33.000000 27.000000 543.000000 
-27.000000 27.000000 543.000000 
-33.000000 33.000000 543.000000 
-33.000000 27.000000 549.000000 
-27.000000 33.000000 543.000000 
-27.000000 27.000000 549.000000 
-33.000000 33.000000 549.000000 
-27.000000 33.000000 549.000000 
-39.000000 39.000000 543.000000 
-45.000000 39.000000 549.000000 
-39.000000 39.000000 549.000000 
-33.000000 39.000000 543.000000 
-27.000000 39.000000 543.000000 
-33.000000 39.000000 549.000000 
-27.000000 45.000000 543.000000 
-27.000000 39.000000 549.000000 
-33.000000 45.000000 549.000000 
-27.000000 45.000000 549.000000 
-45.000000 3.000000 555.000000 
-39.000000 3.000000 555.000000 
-45.000000 9.000000 555.000000 
-45.000000 3.000000 561.000000 
-39.000000 9.000000 555.000000 
-39.000000 3.000000 561.000000 
-45.000000 9.000000 561.000000 
-39.000000 9.000000 561.000000 
-33.000000 3.000000 555.000000 
-27.000000 3.000000 555.000000 
-33.000000 9.000000 555.000000 
-33.000000 3.000000 561.000000 
-27.000000 9.000000 555.000000 
-27.000000 3.000000 561.000000 
-33.000000 9.000000 561.000000 
-45.000000 15.000000 555.000000 
-39.000000 15.000000 555.000000 
-45.000000 21.000000 555.000000 
-45.000000 15.000000 561.000000 
-39.000000 21.000000 555.000000 
-39.000000 15.000000 561.000000 
-45.000000 21.000000 561.000000 
-39.000000 21.000000 561.000000 
-45.000000 3.000000 567.000000 
-39.000000 3.000000 567.000000 
-45.000000 9.000000 567.000000 
-45.000000 3.000000 573.000000 
-39.000000 9.000000 567.000000 
-45.000000 9.000000 573.000000 
-39.000000 9.000000 573.000000 
-33.000000 15.000000 555.000000 
-27.000000 15.000000 555.000000 
-33.000000 21.000000 555.000000 
-33.000000 15.000000 561.000000 
-27.000000 21.000000 555.000000 
-33.000000 21.000000 561.000000 
-27.000000 21.000000 561.000000 
-27.000000 3.000000 567.000000 
-33.000000 3.000000 573.000000 
-27.000000 9.000000 567.000000 
-27.000000 3.000000 573.000000 
-27.000000 9.000000 573.000000 
-45.000000 15.000000 567.000000 
-39.000000 15.000000 567.000000 
-45.000000 21.000000 567.000000 
-45.000000 15.000000 573.000000 
-39.000000 21.000000 567.000000 
-39.000000 15.000000 573.000000 
-45.000000 21.000000 573.000000 
-39.000000 21.000000 573.000000 
-21.000000 27.000000 531.000000 
-15.000000 27.000000 531.000000 
-21.000000 33.000000 531.000000 
-21.000000 27.000000 537.000000 
-15.000000 33.000000 531.000000 
-15.000000 27.000000 537.000000 
-21.000000 33.000000 537.000000 
-15.000000 33.000000 537.000000 
-9.000000 27.000000 531.000000 
-3.000000 27.000000 531.000000 
-9.000000 33.000000 531.000000 
-9.000000 27.000000 537.000000 
-3.000000 33.000000 531.000000 
-3.000000 27.000000 537.000000 
-9.000000 33.000000 537.000000 
-3.000000 33.000000 537.000000 
-21.000000 39.000000 531.000000 
-15.000000 39.000000 531.000000 
-21.000000 45.000000 531.000000 
-21.000000 39.000000 537.000000 
-15.000000 45.000000 531.000000 
-15.000000 39.000000 537.000000 
-21.000000 45.000000 537.000000 
-15.000000 45.000000 537.000000 
-21.000000 27.000000 543.000000 
-15.000000 27.000000 543.000000 
-21.000000 33.000000 543.000000 
-21.000000 27.000000 549.000000 
-15.000000 33.000000 543.000000 
-15.000000 27.000000 549.000000 
-21.000000 33.000000 549.000000 
-15.000000 33.000000 549.000000 
-9.000000 39.000000 531.000000 
-9.000000 39.000000 537.000000 
-9.000000 45.000000 537.000000 
-9.000000 27.000000 543.000000 
-3.000000 27.000000 543.000000 
-9.000000 33.000000 543.000000 
-9.000000 27.000000 549.000000 
-3.000000 33.000000 543.000000 
-3.000000 27.000000 549.000000 
-9.000000 33.000000 549.000000 
-3.000000 33.000000 549.000000 
-21.000000 39.000000 543.000000 
-15.000000 39.000000 543.000000 
-21.000000 45.000000 543.000000 
-21.000000 39.000000 549.000000 
-15.000000 45.000000 543.000000 
-15.000000 39.000000 549.000000 
-21.000000 45.000000 549.000000 
-15.000000 45.000000 549.000000 
-9.000000 39.000000 543.000000 
-9.000000 45.000000 543.000000 
-9.000000 39.000000 549.000000 
-9.000000 45.000000 549.000000 
-21.000000 3.000000 555.000000 
-15.000000 3.000000 555.000000 
-21.000000 9.000000 555.000000 
-21.000000 3.000000 561.000000 
-15.000000 9.000000 555.000000 
-15.000000 3.000000 561.000000 
-21.000000 9.000000 561.000000 
-15.000000 9.000000 561.000000 
-9.000000 3.000000 555.000000 
-3.000000 3.000000 555.000000 
-9.000000 9.000000 555.000000 
-9.000000 3.000000 561.000000 
-3.000000 9.000000 555.000000 
-3.000000 3.000000 561.000000 
-9.000000 9.000000 561.000000 
-3.000000 9.000000 561.000000 
-21.000000 15.000000 555.000000 
-15.000000 15.000000 555.000000 
-21.000000 15.000000 561.000000 
-15.000000 21.000000 555.000000 
-15.000000 15.000000 561.000000 
-21.000000 21.000000 561.000000 
-15.000000 21.000000 561.000000 
-21.000000 3.000000 567.000000 
-21.000000 3.000000 573.000000 
-15.000000 9.000000 567.000000 
-15.000000 9.000000 573.000000 
-9.000000 15.000000 555.000000 
-3.000000 15.000000 555.000000 
-9.000000 21.000000 555.000000 
-9.000000 15.000000 561.000000 
-3.000000 21.000000 555.000000 
-3.000000 15.000000 561.000000 
-9.000000 21.000000 561.000000 
-9.000000 3.000000 567.000000 
-3.000000 3.000000 567.000000 
-9.000000 9.000000 567.000000 
-9.000000 3.000000 573.000000 
-9.000000 9.000000 573.000000 
-21.000000 15.000000 567.000000 
-15.000000 15.000000 567.000000 
-21.000000 21.000000 567.000000 
-21.000000 15.000000 573.000000 
-15.000000 21.000000 567.000000 
-15.000000 15.000000 573.000000 
-21.000000 21.000000 573.000000 
-15.000000 21.000000 573.000000 
-9.000000 15.000000 567.000000 
-9.000000 21.000000 567.000000 
-9.000000 15.000000 573.000000 
-9.000000 21.000000 573.000000 
-45.000000 27.000000 555.000000 
-39.000000 27.000000 555.000000 
-45.000000 33.000000 555.000000 
-45.000000 27.000000 561.000000 
-39.000000 33.000000 555.000000 
-39.000000 27.000000 561.000000 
-45.000000 33.000000 561.000000 
-39.000000 33.000000 561.000000 
-33.000000 27.000000 555.000000 
-27.000000 27.000000 555.000000 
-33.000000 33.000000 555.000000 
-33.000000 27.000000 561.000000 
-27.000000 33.000000 555.000000 
-27.000000 27.000000 561.000000 
-33.000000 33.000000 561.000000 
-27.000000 33.000000 561.000000 
-45.000000 39.000000 555.000000 
-39.000000 39.000000 555.000000 
-39.000000 45.000000 555.000000 
-39.000000 39.000000 561.000000 
-45.000000 45.000000 561.000000 
-39.000000 45.000000 561.000000 
-45.000000 27.000000 567.000000 
-39.000000 27.000000 567.000000 
-45.000000 33.000000 567.000000 
-45.000000 27.000000 573.000000 
-33.000000 39.000000 555.000000 
-27.000000 39.000000 555.000000 
-33.000000 45.000000 555.000000 
-33.000000 39.000000 561.000000 
-27.000000 45.000000 555.000000 
-27.000000 39.000000 561.000000 
-33.000000 45.000000 561.000000 
-27.000000 45.000000 561.000000 
-33.000000 33.000000 567.000000 
-33.000000 33.000000 573.000000 
-39.000000 39.000000 567.000000 
-45.000000 45.000000 567.000000 
-39.000000 45.000000 567.000000 
-39.000000 39.000000 573.000000 
-39.000000 45.000000 573.000000 
-33.000000 39.000000 567.000000 
-27.000000 39.000000 567.000000 
-33.000000 45.000000 567.000000 
-33.000000 39.000000 573.000000 
-27.000000 45.000000 567.000000 
-33.000000 45.000000 573.000000 
-27.000000 45.000000 573.000000 
-21.000000 27.000000 555.000000 
-15.000000 27.000000 555.000000 
-21.000000 33.000000 555.000000 
-15.000000 33.000000 555.000000 
-15.000000 27.000000 561.000000 
-15.000000 33.000000 561.000000 
-9.000000 27.000000 555.000000 
-3.000000 27.000000 555.000000 
-9.000000 33.000000 555.000000 
-9.000000 27.000000 561.000000 
-3.000000 33.000000 555.000000 
-9.000000 33.000000 561.000000 
-21.000000 39.000000 555.000000 
-21.000000 45.000000 555.000000 
-15.000000 39.000000 561.000000 
-21.000000 45.000000 561.000000 
-15.000000 45.000000 561.000000 
-21.000000 27.000000 567.000000 
-15.000000 27.000000 567.000000 
-21.000000 33.000000 567.000000 
-21.000000 27.000000 573.000000 
-15.000000 33.000000 567.000000 
-15.000000 27.000000 573.000000 
-15.000000 33.000000 573.000000 
-9.000000 39.000000 555.000000 
-9.000000 45.000000 555.000000 
-9.000000 39.000000 561.000000 
-9.000000 45.000000 561.000000 
-9.000000 27.000000 567.000000 
-9.000000 33.000000 567.000000 
-15.000000 39.000000 567.000000 
-21.000000 39.000000 573.000000 
-15.000000 45.000000 567.000000 
-15.000000 39.000000 573.000000 
-93.000000 51.000000 531.000000 
-87.000000 51.000000 531.000000 
-93.000000 57.000000 531.000000 
-93.000000 51.000000 537.000000 
-87.000000 57.000000 531.000000 
-87.000000 51.000000 537.000000 
-93.000000 57.000000 537.000000 
-87.000000 57.000000 537.000000 
-75.000000 57.000000 537.000000 
-93.000000 63.000000 531.000000 
-87.000000 63.000000 531.000000 
-93.000000 69.000000 531.000000 
-93.000000 63.000000 537.000000 
-87.000000 69.000000 531.000000 
-87.000000 63.000000 537.000000 
-93.000000 69.000000 537.000000 
-93.000000 51.000000 543.000000 
-87.000000 51.000000 543.000000 
-93.000000 57.000000 543.000000 
-93.000000 51.000000 549.000000 
-87.000000 57.000000 543.000000 
-87.000000 51.000000 549.000000 
-93.000000 57.000000 549.000000 
-87.000000 57.000000 549.000000 
-75.000000 69.000000 531.000000 
-75.000000 63.000000 537.000000 
-75.000000 69.000000 537.000000 
-93.000000 63.000000 543.000000 
-87.000000 63.000000 543.000000 
-93.000000 69.000000 543.000000 
-93.000000 63.000000 549.000000 
-87.000000 63.000000 549.000000 
-93.000000 69.000000 549.000000 
-87.000000 69.000000 549.000000 
-75.000000 69.000000 543.000000 
-93.000000 75.000000 543.000000 
-93.000000 75.000000 549.000000 
-81.000000 75.000000 549.000000 
-75.000000 75.000000 549.000000 
-93.000000 51.000000 555.000000 
-87.000000 51.000000 555.000000 
-93.000000 57.000000 555.000000 
-93.000000 51.000000 561.000000 
-87.000000 57.000000 555.000000 
-93.000000 57.000000 561.000000 
-87.000000 57.000000 561.000000 
-93.000000 63.000000 555.000000 
-87.000000 63.000000 555.000000 
-93.000000 69.000000 555.000000 
-93.000000 63.000000 561.000000 
-87.000000 69.000000 555.000000 
-87.000000 63.000000 561.000000 
-93.000000 69.000000 561.000000 
-87.000000 69.000000 561.000000 
-93.000000 51.000000 567.000000 
-93.000000 57.000000 567.000000 
-93.000000 57.000000 573.000000 
-81.000000 69.000000 555.000000 
-93.000000 63.000000 567.000000 
-87.000000 63.000000 567.000000 
-93.000000 69.000000 567.000000 
-93.000000 63.000000 573.000000 
-87.000000 69.000000 567.000000 
-93.000000 69.000000 573.000000 
-87.000000 69.000000 573.000000 
-93.000000 75.000000 555.000000 
-93.000000 75.000000 561.000000 
-87.000000 75.000000 561.000000 
-81.000000 75.000000 555.000000 
-81.000000 75.000000 561.000000 
-93.000000 75.000000 567.000000 
-87.000000 75.000000 567.000000 
-93.000000 75.000000 573.000000 
-87.000000 75.000000 573.000000 
-27.000000 51.000000 549.000000 
-21.000000 51.000000 543.000000 
-15.000000 51.000000 543.000000 
-21.000000 51.000000 549.000000 
-15.000000 51.000000 549.000000 
-39.000000 51.000000 561.000000 
-33.000000 51.000000 555.000000 
-27.000000 51.000000 555.000000 
-33.000000 51.000000 561.000000 
-27.000000 51.000000 561.000000 
-33.000000 57.000000 561.000000 
-27.000000 57.000000 561.000000 
-45.000000 51.000000 567.000000 
-39.000000 51.000000 567.000000 
-45.000000 51.000000 573.000000 
-39.000000 57.000000 567.000000 
-39.000000 51.000000 573.000000 
-45.000000 57.000000 573.000000 
-39.000000 57.000000 573.000000 
-33.000000 51.000000 567.000000 
-27.000000 51.000000 567.000000 
-33.000000 57.000000 567.000000 
-33.000000 51.000000 573.000000 
-27.000000 57.000000 567.000000 
-27.000000 51.000000 573.000000 
-33.000000 57.000000 573.000000 
-27.000000 57.000000 573.000000 
-33.000000 63.000000 567.000000 
-33.000000 63.000000 573.000000 
-27.000000 63.000000 573.000000 
-21.000000 51.000000 555.000000 
-15.000000 51.000000 555.000000 
-21.000000 51.000000 561.000000 
-21.000000 57.000000 561.000000 
-9.000000 51.000000 555.000000 
-21.000000 51.000000 567.000000 
-15.000000 51.000000 567.000000 
-21.000000 57.000000 567.000000 
-15.000000 51.000000 573.000000 
-195.000000 33.000000 597.000000 
-195.000000 39.000000 597.000000 
-195.000000 45.000000 597.000000 
-201.000000 45.000000 603.000000 
-195.000000 45.000000 603.000000 
-195.000000 51.000000 597.000000 
-207.000000 51.000000 609.000000 
-207.000000 57.000000 609.000000 
-201.000000 51.000000 603.000000 
-195.000000 51.000000 603.000000 
-201.000000 57.000000 603.000000 
-195.000000 57.000000 603.000000 
-201.000000 57.000000 609.000000 
-195.000000 57.000000 609.000000 
-213.000000 57.000000 615.000000 
-207.000000 57.000000 615.000000 
-195.000000 63.000000 603.000000 
-201.000000 63.000000 609.000000 
-195.000000 63.000000 609.000000 
-195.000000 69.000000 609.000000 
-201.000000 57.000000 615.000000 
-195.000000 57.000000 615.000000 
-207.000000 63.000000 615.000000 
-213.000000 63.000000 621.000000 
-207.000000 69.000000 615.000000 
-207.000000 63.000000 621.000000 
-213.000000 69.000000 621.000000 
-207.000000 69.000000 621.000000 
-201.000000 63.000000 615.000000 
-195.000000 63.000000 615.000000 
-201.000000 69.000000 615.000000 
-201.000000 63.000000 621.000000 
-195.000000 69.000000 615.000000 
-195.000000 63.000000 621.000000 
-201.000000 69.000000 621.000000 
-195.000000 69.000000 621.000000 
-207.000000 75.000000 621.000000 
-201.000000 75.000000 615.000000 
-195.000000 75.000000 615.000000 
-201.000000 75.000000 621.000000 
-195.000000 81.000000 615.000000 
-195.000000 75.000000 621.000000 
-201.000000 81.000000 621.000000 
-195.000000 81.000000 621.000000 
-195.000000 87.000000 621.000000 
-243.000000 87.000000 669.000000 
-243.000000 93.000000 669.000000 
-219.000000 63.000000 627.000000 
-225.000000 63.000000 633.000000 
-219.000000 69.000000 627.000000 
-219.000000 63.000000 633.000000 
-219.000000 69.000000 633.000000 
-231.000000 69.000000 645.000000 
-225.000000 63.000000 639.000000 
-219.000000 63.000000 639.000000 
-225.000000 69.000000 639.000000 
-219.000000 69.000000 639.000000 
-225.000000 69.000000 645.000000 
-219.000000 69.000000 645.000000 
-213.000000 63.000000 627.000000 
-207.000000 63.000000 627.000000 
-213.000000 69.000000 627.000000 
-213.000000 63.000000 633.000000 
-207.000000 69.000000 627.000000 
-207.000000 63.000000 633.000000 
-213.000000 69.000000 633.000000 
-207.000000 69.000000 633.000000 
-201.000000 63.000000 627.000000 
-195.000000 63.000000 627.000000 
-201.000000 69.000000 627.000000 
-201.000000 63.000000 633.000000 
-195.000000 69.000000 627.000000 
-201.000000 69.000000 633.000000 
-195.000000 69.000000 633.000000 
-213.000000 63.000000 639.000000 
-213.000000 69.000000 639.000000 
-207.000000 69.000000 639.000000 
-207.000000 69.000000 645.000000 
-201.000000 69.000000 639.000000 
-195.000000 69.000000 639.000000 
-201.000000 69.000000 645.000000 
-195.000000 69.000000 645.000000 
-219.000000 75.000000 633.000000 
-225.000000 75.000000 639.000000 
-219.000000 75.000000 639.000000 
-219.000000 81.000000 639.000000 
-219.000000 75.000000 645.000000 
-225.000000 81.000000 645.000000 
-219.000000 81.000000 645.000000 
-213.000000 75.000000 627.000000 
-207.000000 75.000000 627.000000 
-213.000000 75.000000 633.000000 
-207.000000 81.000000 627.000000 
-207.000000 75.000000 633.000000 
-213.000000 81.000000 633.000000 
-207.000000 81.000000 633.000000 
-201.000000 75.000000 627.000000 
-195.000000 75.000000 627.000000 
-201.000000 81.000000 627.000000 
-201.000000 75.000000 633.000000 
-195.000000 81.000000 627.000000 
-195.000000 75.000000 633.000000 
-201.000000 81.000000 633.000000 
-195.000000 81.000000 633.000000 
-207.000000 87.000000 633.000000 
-213.000000 75.000000 639.000000 
-207.000000 75.000000 639.000000 
-213.000000 81.000000 639.000000 
-213.000000 75.000000 645.000000 
-207.000000 81.000000 639.000000 
-207.000000 75.000000 645.000000 
-213.000000 81.000000 645.000000 
-207.000000 81.000000 645.000000 
-201.000000 87.000000 627.000000 
-195.000000 87.000000 627.000000 
-201.000000 87.000000 633.000000 
-195.000000 87.000000 633.000000 
-201.000000 93.000000 633.000000 
-195.000000 93.000000 633.000000 
-201.000000 75.000000 639.000000 
-195.000000 75.000000 639.000000 
-201.000000 81.000000 639.000000 
-201.000000 75.000000 645.000000 
-195.000000 81.000000 639.000000 
-195.000000 75.000000 645.000000 
-201.000000 81.000000 645.000000 
-195.000000 81.000000 645.000000 
-213.000000 87.000000 639.000000 
-207.000000 87.000000 639.000000 
-213.000000 87.000000 645.000000 
-207.000000 87.000000 645.000000 
-207.000000 93.000000 645.000000 
-201.000000 87.000000 639.000000 
-195.000000 87.000000 639.000000 
-201.000000 93.000000 639.000000 
-201.000000 87.000000 645.000000 
-195.000000 93.000000 639.000000 
-195.000000 87.000000 645.000000 
-201.000000 93.000000 645.000000 
-195.000000 93.000000 645.000000 
-231.000000 81.000000 651.000000 
-231.000000 81.000000 657.000000 
-219.000000 75.000000 651.000000 
-225.000000 81.000000 651.000000 
-219.000000 81.000000 651.000000 
-219.000000 75.000000 657.000000 
-225.000000 81.000000 657.000000 
-219.000000 81.000000 657.000000 
-231.000000 87.000000 657.000000 
-231.000000 93.000000 657.000000 
-231.000000 81.000000 663.000000 
-231.000000 81.000000 669.000000 
-225.000000 87.000000 651.000000 
-219.000000 87.000000 651.000000 
-225.000000 87.000000 657.000000 
-219.000000 93.000000 651.000000 
-219.000000 87.000000 657.000000 
-225.000000 93.000000 657.000000 
-219.000000 93.000000 657.000000 
-219.000000 75.000000 663.000000 
-225.000000 81.000000 663.000000 
-219.000000 81.000000 663.000000 
-225.000000 81.000000 669.000000 
-219.000000 81.000000 669.000000 
-237.000000 87.000000 663.000000 
-231.000000 87.000000 663.000000 
-237.000000 93.000000 663.000000 
-237.000000 87.000000 669.000000 
-231.000000 93.000000 663.000000 
-231.000000 87.000000 669.000000 
-237.000000 93.000000 669.000000 
-231.000000 93.000000 669.000000 
-225.000000 87.000000 663.000000 
-219.000000 87.000000 663.000000 
-225.000000 93.000000 663.000000 
-225.000000 87.000000 669.000000 
-219.000000 93.000000 663.000000 
-219.000000 87.000000 669.000000 
-225.000000 93.000000 669.000000 
-219.000000 93.000000 669.000000 
-213.000000 75.000000 651.000000 
-207.000000 75.000000 651.000000 
-213.000000 81.000000 651.000000 
-213.000000 75.000000 657.000000 
-207.000000 81.000000 651.000000 
-207.000000 75.000000 657.000000 
-213.000000 81.000000 657.000000 
-207.000000 81.000000 657.000000 
-201.000000 75.000000 651.000000 
-195.000000 75.000000 651.000000 
-201.000000 81.000000 651.000000 
-195.000000 81.000000 651.000000 
-201.000000 81.000000 657.000000 
-195.000000 81.000000 657.000000 
-213.000000 87.000000 651.000000 
-207.000000 87.000000 651.000000 
-213.000000 93.000000 651.000000 
-213.000000 87.000000 657.000000 
-207.000000 93.000000 651.000000 
-207.000000 87.000000 657.000000 
-213.000000 93.000000 657.000000 
-207.000000 93.000000 657.000000 
-213.000000 75.000000 663.000000 
-213.000000 81.000000 663.000000 
-207.000000 81.000000 663.000000 
-213.000000 81.000000 669.000000 
-201.000000 87.000000 651.000000 
-195.000000 87.000000 651.000000 
-201.000000 93.000000 651.000000 
-201.000000 87.000000 657.000000 
-195.000000 93.000000 651.000000 
-195.000000 87.000000 657.000000 
-201.000000 93.000000 657.000000 
-195.000000 93.000000 657.000000 
-213.000000 87.000000 663.000000 
-207.000000 87.000000 663.000000 
-213.000000 93.000000 663.000000 
-213.000000 87.000000 669.000000 
-207.000000 93.000000 663.000000 
-207.000000 87.000000 669.000000 
-213.000000 93.000000 669.000000 
-207.000000 93.000000 669.000000 
-201.000000 87.000000 663.000000 
-201.000000 93.000000 663.000000 
-195.000000 93.000000 663.000000 
-201.000000 93.000000 669.000000 
-315.000000 81.000000 681.000000 
-243.000000 99.000000 669.000000 
-243.000000 105.000000 669.000000 
-243.000000 111.000000 669.000000 
-249.000000 123.000000 669.000000 
-243.000000 123.000000 669.000000 
-249.000000 129.000000 669.000000 
-243.000000 129.000000 669.000000 
-249.000000 135.000000 669.000000 
-243.000000 135.000000 669.000000 
-249.000000 141.000000 669.000000 
-243.000000 141.000000 669.000000 
-195.000000 99.000000 633.000000 
-195.000000 99.000000 639.000000 
-201.000000 99.000000 645.000000 
-195.000000 99.000000 645.000000 
-195.000000 105.000000 645.000000 
-231.000000 99.000000 657.000000 
-225.000000 99.000000 657.000000 
-219.000000 99.000000 657.000000 
-225.000000 105.000000 657.000000 
-219.000000 105.000000 657.000000 
-237.000000 99.000000 663.000000 
-231.000000 99.000000 663.000000 
-237.000000 99.000000 669.000000 
-231.000000 105.000000 663.000000 
-231.000000 99.000000 669.000000 
-237.000000 105.000000 669.000000 
-231.000000 105.000000 669.000000 
-219.000000 111.000000 657.000000 
-225.000000 99.000000 663.000000 
-219.000000 99.000000 663.000000 
-225.000000 105.000000 663.000000 
-225.000000 99.000000 669.000000 
-219.000000 105.000000 663.000000 
-219.000000 99.000000 669.000000 
-225.000000 105.000000 669.000000 
-219.000000 105.000000 669.000000 
-231.000000 111.000000 663.000000 
-237.000000 111.000000 669.000000 
-231.000000 117.000000 663.000000 
-231.000000 111.000000 669.000000 
-237.000000 117.000000 669.000000 
-231.000000 117.000000 669.000000 
-225.000000 111.000000 663.000000 
-219.000000 111.000000 663.000000 
-225.000000 117.000000 663.000000 
-225.000000 111.000000 669.000000 
-219.000000 117.000000 663.000000 
-219.000000 111.000000 669.000000 
-225.000000 117.000000 669.000000 
-219.000000 117.000000 669.000000 
-213.000000 99.000000 651.000000 
-207.000000 99.000000 651.000000 
-213.000000 105.000000 651.000000 
-213.000000 99.000000 657.000000 
-207.000000 105.000000 651.000000 
-207.000000 99.000000 657.000000 
-213.000000 105.000000 657.000000 
-207.000000 105.000000 657.000000 
-201.000000 99.000000 651.000000 
-195.000000 99.000000 651.000000 
-201.000000 105.000000 651.000000 
-201.000000 99.000000 657.000000 
-195.000000 105.000000 651.000000 
-195.000000 99.000000 657.000000 
-201.000000 105.000000 657.000000 
-195.000000 105.000000 657.000000 
-207.000000 111.000000 651.000000 
-213.000000 111.000000 657.000000 
-207.000000 111.000000 657.000000 
-213.000000 117.000000 657.000000 
-207.000000 117.000000 657.000000 
-213.000000 99.000000 663.000000 
-207.000000 99.000000 663.000000 
-213.000000 105.000000 663.000000 
-213.000000 99.000000 669.000000 
-207.000000 105.000000 663.000000 
-207.000000 99.000000 669.000000 
-213.000000 105.000000 669.000000 
-207.000000 105.000000 669.000000 
-201.000000 111.000000 651.000000 
-195.000000 111.000000 651.000000 
-201.000000 111.000000 657.000000 
-195.000000 117.000000 651.000000 
-195.000000 111.000000 657.000000 
-201.000000 117.000000 657.000000 
-195.000000 117.000000 657.000000 
-201.000000 99.000000 663.000000 
-195.000000 99.000000 663.000000 
-201.000000 105.000000 663.000000 
-201.000000 99.000000 669.000000 
-195.000000 105.000000 663.000000 
-195.000000 99.000000 669.000000 
-201.000000 105.000000 669.000000 
-195.000000 105.000000 669.000000 
-213.000000 111.000000 663.000000 
-207.000000 111.000000 663.000000 
-213.000000 117.000000 663.000000 
-213.000000 111.000000 669.000000 
-207.000000 117.000000 663.000000 
-207.000000 111.000000 669.000000 
-213.000000 117.000000 669.000000 
-207.000000 117.000000 669.000000 
-201.000000 111.000000 663.000000 
-195.000000 111.000000 663.000000 
-201.000000 117.000000 663.000000 
-201.000000 111.000000 669.000000 
-195.000000 117.000000 663.000000 
-195.000000 111.000000 669.000000 
-201.000000 117.000000 669.000000 
-195.000000 117.000000 669.000000 
-237.000000 123.000000 669.000000 
-231.000000 123.000000 669.000000 
-237.000000 129.000000 669.000000 
-231.000000 129.000000 669.000000 
-225.000000 123.000000 663.000000 
-219.000000 123.000000 663.000000 
-225.000000 123.000000 669.000000 
-219.000000 123.000000 669.000000 
-225.000000 129.000000 669.000000 
-219.000000 129.000000 669.000000 
-237.000000 135.000000 669.000000 
-231.000000 135.000000 669.000000 
-237.000000 141.000000 669.000000 
-231.000000 141.000000 669.000000 
-225.000000 135.000000 669.000000 
-219.000000 135.000000 669.000000 
-225.000000 141.000000 669.000000 
-219.000000 141.000000 669.000000 
-207.000000 123.000000 657.000000 
-201.000000 123.000000 657.000000 
-195.000000 123.000000 657.000000 
-213.000000 123.000000 663.000000 
-207.000000 123.000000 663.000000 
-213.000000 123.000000 669.000000 
-207.000000 129.000000 663.000000 
-207.000000 123.000000 669.000000 
-213.000000 129.000000 669.000000 
-207.000000 129.000000 669.000000 
-201.000000 123.000000 663.000000 
-195.000000 123.000000 663.000000 
-201.000000 129.000000 663.000000 
-201.000000 123.000000 669.000000 
-195.000000 129.000000 663.000000 
-195.000000 123.000000 669.000000 
-201.000000 129.000000 669.000000 
-195.000000 129.000000 669.000000 
-213.000000 135.000000 663.000000 
-207.000000 135.000000 663.000000 
-213.000000 141.000000 663.000000 
-213.000000 135.000000 669.000000 
-207.000000 141.000000 663.000000 
-207.000000 135.000000 669.000000 
-213.000000 141.000000 669.000000 
-207.000000 141.000000 669.000000 
-201.000000 141.000000 663.000000 
-201.000000 135.000000 669.000000 
-195.000000 141.000000 663.000000 
-195.000000 135.000000 669.000000 
-201.000000 141.000000 669.000000 
-195.000000 141.000000 669.000000 
-255.000000 147.000000 669.000000 
-249.000000 147.000000 669.000000 
-243.000000 147.000000 669.000000 
-249.000000 153.000000 669.000000 
-243.000000 153.000000 669.000000 
-255.000000 159.000000 669.000000 
-255.000000 165.000000 669.000000 
-249.000000 159.000000 669.000000 
-243.000000 159.000000 669.000000 
-249.000000 165.000000 669.000000 
-243.000000 165.000000 669.000000 
-255.000000 171.000000 669.000000 
-261.000000 177.000000 669.000000 
-255.000000 177.000000 669.000000 
-249.000000 171.000000 669.000000 
-243.000000 171.000000 669.000000 
-249.000000 177.000000 669.000000 
-243.000000 177.000000 669.000000 
-255.000000 183.000000 669.000000 
-249.000000 183.000000 669.000000 
-243.000000 183.000000 669.000000 
-237.000000 147.000000 669.000000 
-231.000000 147.000000 669.000000 
-237.000000 153.000000 669.000000 
-231.000000 153.000000 669.000000 
