12.000000 -84.000000 156.000000 
36.000000 -84.000000 156.000000 
36.000000 -60.000000 156.000000 
60.000000 -36.000000 132.000000 
60.000000 -84.000000 156.000000 
84.000000 -84.000000 156.000000 
60.000000 -60.000000 156.000000 
60.000000 -84.000000 180.000000 
84.000000 -60.000000 156.000000 
84.000000 -84.000000 180.000000 
60.000000 -60.000000 180.000000 
84.000000 -60.000000 180.000000 
12.000000 -36.000000 156.000000 
12.000000 -12.000000 156.000000 
12.000000 -36.000000 180.000000 
12.000000 -12.000000 180.000000 
60.000000 -36.000000 156.000000 
84.000000 -36.000000 180.000000 
108.000000 -84.000000 180.000000 
132.000000 -84.000000 180.000000 
108.000000 -60.000000 180.000000 
108.000000 -36.000000 180.000000 
156.000000 -204.000000 252.000000 
180.000000 -204.000000 252.000000 
228.000000 -228.000000 252.000000 
204.000000 -204.000000 252.000000 
228.000000 -204.000000 252.000000 
228.000000 -228.000000 276.000000 
204.000000 -204.000000 276.000000 
228.000000 -204.000000 276.000000 
252.000000 -228.000000 252.000000 
252.000000 -204.000000 252.000000 
252.000000 -228.000000 276.000000 
276.000000 -228.000000 276.000000 
252.000000 -204.000000 276.000000 
276.000000 -204.000000 276.000000 
300.000000 -252.000000 276.000000 
324.000000 -252.000000 276.000000 
372.000000 -276.000000 252.000000 
348.000000 -252.000000 252.000000 
372.000000 -252.000000 252.000000 
348.000000 -252.000000 276.000000 
372.000000 -252.000000 276.000000 
300.000000 -228.000000 276.000000 
324.000000 -228.000000 276.000000 
300.000000 -204.000000 276.000000 
324.000000 -204.000000 276.000000 
348.000000 -228.000000 252.000000 
372.000000 -228.000000 252.000000 
348.000000 -228.000000 276.000000 
372.000000 -204.000000 252.000000 
372.000000 -228.000000 276.000000 
348.000000 -204.000000 276.000000 
372.000000 -204.000000 276.000000 
84.000000 -156.000000 228.000000 
84.000000 -132.000000 204.000000 
84.000000 -108.000000 204.000000 
84.000000 -132.000000 228.000000 
84.000000 -108.000000 228.000000 
108.000000 -156.000000 228.000000 
132.000000 -156.000000 228.000000 
156.000000 -156.000000 228.000000 
180.000000 -156.000000 228.000000 
108.000000 -132.000000 204.000000 
132.000000 -132.000000 204.000000 
108.000000 -108.000000 204.000000 
108.000000 -132.000000 228.000000 
132.000000 -108.000000 204.000000 
132.000000 -132.000000 228.000000 
108.000000 -108.000000 228.000000 
132.000000 -108.000000 228.000000 
132.000000 -156.000000 252.000000 
156.000000 -132.000000 228.000000 
180.000000 -132.000000 228.000000 
156.000000 -108.000000 228.000000 
180.000000 -108.000000 228.000000 
156.000000 -180.000000 252.000000 
180.000000 -180.000000 252.000000 
156.000000 -156.000000 252.000000 
180.000000 -156.000000 252.000000 
132.000000 -132.000000 252.000000 
132.000000 -108.000000 252.000000 
156.000000 -132.000000 252.000000 
180.000000 -132.000000 252.000000 
156.000000 -108.000000 252.000000 
180.000000 -108.000000 252.000000 
84.000000 -84.000000 204.000000 
12.000000 -36.000000 204.000000 
12.000000 -36.000000 228.000000 
12.000000 -60.000000 276.000000 
12.000000 -36.000000 252.000000 
12.000000 -36.000000 276.000000 
12.000000 -12.000000 276.000000 
108.000000 -84.000000 204.000000 
132.000000 -84.000000 204.000000 
108.000000 -84.000000 228.000000 
132.000000 -84.000000 228.000000 
156.000000 -84.000000 228.000000 
180.000000 -84.000000 228.000000 
132.000000 -84.000000 252.000000 
156.000000 -84.000000 252.000000 
12.000000 -84.000000 300.000000 
12.000000 -60.000000 300.000000 
12.000000 -84.000000 324.000000 
12.000000 -60.000000 324.000000 
36.000000 -60.000000 324.000000 
12.000000 -36.000000 300.000000 
36.000000 -36.000000 300.000000 
12.000000 -12.000000 300.000000 
12.000000 -36.000000 324.000000 
36.000000 -12.000000 300.000000 
36.000000 -36.000000 324.000000 
12.000000 -12.000000 324.000000 
36.000000 -12.000000 324.000000 
12.000000 -84.000000 348.000000 
36.000000 -84.000000 348.000000 
12.000000 -60.000000 348.000000 
12.000000 -84.000000 372.000000 
36.000000 -60.000000 348.000000 
36.000000 -84.000000 372.000000 
12.000000 -60.000000 372.000000 
36.000000 -60.000000 372.000000 
60.000000 -60.000000 348.000000 
60.000000 -84.000000 372.000000 
60.000000 -60.000000 372.000000 
84.000000 -60.000000 372.000000 
12.000000 -36.000000 348.000000 
36.000000 -36.000000 348.000000 
12.000000 -12.000000 348.000000 
12.000000 -36.000000 372.000000 
36.000000 -12.000000 348.000000 
36.000000 -36.000000 372.000000 
12.000000 -12.000000 372.000000 
36.000000 -12.000000 372.000000 
60.000000 -36.000000 348.000000 
60.000000 -12.000000 348.000000 
60.000000 -36.000000 372.000000 
60.000000 -12.000000 372.000000 
204.000000 -132.000000 228.000000 
204.000000 -108.000000 228.000000 
204.000000 -180.000000 252.000000 
228.000000 -180.000000 252.000000 
204.000000 -156.000000 252.000000 
204.000000 -180.000000 276.000000 
228.000000 -156.000000 252.000000 
228.000000 -180.000000 276.000000 
204.000000 -156.000000 276.000000 
228.000000 -156.000000 276.000000 
252.000000 -180.000000 252.000000 
252.000000 -180.000000 276.000000 
276.000000 -180.000000 276.000000 
252.000000 -156.000000 276.000000 
276.000000 -156.000000 276.000000 
204.000000 -132.000000 252.000000 
228.000000 -132.000000 252.000000 
204.000000 -108.000000 252.000000 
204.000000 -132.000000 276.000000 
228.000000 -108.000000 252.000000 
228.000000 -132.000000 276.000000 
252.000000 -132.000000 276.000000 
276.000000 -132.000000 276.000000 
300.000000 -180.000000 252.000000 
324.000000 -180.000000 252.000000 
300.000000 -156.000000 252.000000 
300.000000 -180.000000 276.000000 
324.000000 -156.000000 252.000000 
324.000000 -180.000000 276.000000 
300.000000 -156.000000 276.000000 
324.000000 -156.000000 276.000000 
348.000000 -180.000000 276.000000 
348.000000 -156.000000 276.000000 
324.000000 -132.000000 252.000000 
300.000000 -132.000000 276.000000 
324.000000 -132.000000 276.000000 
300.000000 -108.000000 276.000000 
204.000000 -60.000000 228.000000 
492.000000 -300.000000 84.000000 
468.000000 -300.000000 132.000000 
468.000000 -300.000000 156.000000 
444.000000 -300.000000 180.000000 
492.000000 -300.000000 108.000000 
492.000000 -300.000000 132.000000 
468.000000 -276.000000 132.000000 
420.000000 -276.000000 180.000000 
444.000000 -276.000000 156.000000 
468.000000 -276.000000 156.000000 
444.000000 -276.000000 180.000000 
468.000000 -276.000000 180.000000 
444.000000 -252.000000 180.000000 
468.000000 -252.000000 180.000000 
420.000000 -300.000000 228.000000 
420.000000 -276.000000 204.000000 
420.000000 -252.000000 204.000000 
420.000000 -276.000000 228.000000 
396.000000 -252.000000 228.000000 
420.000000 -252.000000 228.000000 
444.000000 -276.000000 204.000000 
468.000000 -276.000000 204.000000 
444.000000 -252.000000 204.000000 
444.000000 -276.000000 228.000000 
420.000000 -228.000000 204.000000 
396.000000 -228.000000 228.000000 
396.000000 -276.000000 252.000000 
420.000000 -276.000000 252.000000 
396.000000 -252.000000 252.000000 
420.000000 -252.000000 252.000000 
444.000000 -228.000000 204.000000 
396.000000 -228.000000 252.000000 
396.000000 -228.000000 276.000000 
204.000000 -204.000000 564.000000 
228.000000 -204.000000 564.000000 
36.000000 -108.000000 396.000000 
12.000000 -108.000000 420.000000 
36.000000 -108.000000 420.000000 
36.000000 -156.000000 468.000000 
60.000000 -108.000000 396.000000 
60.000000 -108.000000 420.000000 
12.000000 -132.000000 444.000000 
36.000000 -132.000000 444.000000 
12.000000 -108.000000 444.000000 
12.000000 -132.000000 468.000000 
36.000000 -108.000000 444.000000 
36.000000 -132.000000 468.000000 
12.000000 -108.000000 468.000000 
36.000000 -108.000000 468.000000 
60.000000 -132.000000 444.000000 
84.000000 -132.000000 444.000000 
60.000000 -108.000000 444.000000 
60.000000 -132.000000 468.000000 
84.000000 -108.000000 444.000000 
84.000000 -132.000000 468.000000 
60.000000 -108.000000 468.000000 
84.000000 -108.000000 468.000000 
108.000000 -132.000000 444.000000 
108.000000 -108.000000 444.000000 
108.000000 -132.000000 468.000000 
108.000000 -108.000000 468.000000 
132.000000 -108.000000 468.000000 
12.000000 -84.000000 396.000000 
36.000000 -84.000000 396.000000 
12.000000 -60.000000 396.000000 
12.000000 -84.000000 420.000000 
36.000000 -60.000000 396.000000 
36.000000 -84.000000 420.000000 
12.000000 -60.000000 420.000000 
36.000000 -60.000000 420.000000 
60.000000 -84.000000 396.000000 
60.000000 -60.000000 396.000000 
60.000000 -84.000000 420.000000 
84.000000 -60.000000 396.000000 
84.000000 -84.000000 420.000000 
60.000000 -60.000000 420.000000 
84.000000 -60.000000 420.000000 
12.000000 -36.000000 396.000000 
36.000000 -36.000000 396.000000 
12.000000 -12.000000 396.000000 
12.000000 -36.000000 420.000000 
36.000000 -12.000000 396.000000 
36.000000 -36.000000 420.000000 
12.000000 -12.000000 420.000000 
36.000000 -12.000000 420.000000 
12.000000 -84.000000 444.000000 
36.000000 -84.000000 444.000000 
12.000000 -60.000000 444.000000 
12.000000 -84.000000 468.000000 
36.000000 -60.000000 444.000000 
36.000000 -84.000000 468.000000 
12.000000 -60.000000 468.000000 
36.000000 -60.000000 468.000000 
60.000000 -36.000000 396.000000 
84.000000 -36.000000 396.000000 
60.000000 -12.000000 396.000000 
60.000000 -36.000000 420.000000 
84.000000 -36.000000 420.000000 
60.000000 -12.000000 420.000000 
60.000000 -84.000000 444.000000 
84.000000 -84.000000 444.000000 
60.000000 -60.000000 444.000000 
60.000000 -84.000000 468.000000 
84.000000 -60.000000 444.000000 
84.000000 -84.000000 468.000000 
60.000000 -60.000000 468.000000 
84.000000 -60.000000 468.000000 
12.000000 -36.000000 444.000000 
36.000000 -36.000000 444.000000 
12.000000 -12.000000 444.000000 
12.000000 -36.000000 468.000000 
36.000000 -12.000000 444.000000 
36.000000 -36.000000 468.000000 
12.000000 -12.000000 468.000000 
36.000000 -12.000000 468.000000 
60.000000 -36.000000 444.000000 
84.000000 -36.000000 444.000000 
60.000000 -12.000000 444.000000 
60.000000 -36.000000 468.000000 
84.000000 -12.000000 444.000000 
84.000000 -36.000000 468.000000 
60.000000 -12.000000 468.000000 
84.000000 -12.000000 468.000000 
36.000000 -156.000000 492.000000 
60.000000 -156.000000 492.000000 
84.000000 -156.000000 492.000000 
60.000000 -156.000000 516.000000 
84.000000 -156.000000 516.000000 
12.000000 -132.000000 492.000000 
36.000000 -132.000000 492.000000 
12.000000 -108.000000 492.000000 
12.000000 -132.000000 516.000000 
36.000000 -108.000000 492.000000 
12.000000 -108.000000 516.000000 
60.000000 -132.000000 492.000000 
84.000000 -132.000000 492.000000 
60.000000 -108.000000 492.000000 
60.000000 -132.000000 516.000000 
84.000000 -108.000000 492.000000 
84.000000 -132.000000 516.000000 
60.000000 -108.000000 516.000000 
84.000000 -108.000000 516.000000 
84.000000 -156.000000 564.000000 
12.000000 -132.000000 540.000000 
12.000000 -108.000000 540.000000 
60.000000 -132.000000 540.000000 
84.000000 -132.000000 540.000000 
60.000000 -108.000000 540.000000 
84.000000 -108.000000 540.000000 
84.000000 -132.000000 564.000000 
60.000000 -108.000000 564.000000 
84.000000 -108.000000 564.000000 
108.000000 -84.000000 444.000000 
108.000000 -60.000000 444.000000 
108.000000 -84.000000 468.000000 
132.000000 -84.000000 468.000000 
108.000000 -60.000000 468.000000 
132.000000 -60.000000 468.000000 
108.000000 -36.000000 468.000000 
108.000000 -156.000000 516.000000 
132.000000 -156.000000 516.000000 
156.000000 -156.000000 516.000000 
108.000000 -132.000000 492.000000 
132.000000 -132.000000 492.000000 
108.000000 -108.000000 492.000000 
108.000000 -132.000000 516.000000 
132.000000 -108.000000 492.000000 
132.000000 -132.000000 516.000000 
108.000000 -108.000000 516.000000 
132.000000 -108.000000 516.000000 
132.000000 -180.000000 540.000000 
108.000000 -156.000000 540.000000 
132.000000 -156.000000 540.000000 
132.000000 -180.000000 564.000000 
132.000000 -156.000000 564.000000 
156.000000 -108.000000 492.000000 
156.000000 -132.000000 516.000000 
156.000000 -108.000000 516.000000 
156.000000 -180.000000 540.000000 
180.000000 -180.000000 540.000000 
156.000000 -156.000000 540.000000 
156.000000 -180.000000 564.000000 
180.000000 -156.000000 540.000000 
180.000000 -180.000000 564.000000 
156.000000 -156.000000 564.000000 
180.000000 -156.000000 564.000000 
132.000000 -132.000000 540.000000 
108.000000 -132.000000 564.000000 
132.000000 -108.000000 540.000000 
132.000000 -132.000000 564.000000 
108.000000 -108.000000 564.000000 
156.000000 -132.000000 540.000000 
180.000000 -132.000000 540.000000 
156.000000 -108.000000 540.000000 
156.000000 -132.000000 564.000000 
180.000000 -108.000000 540.000000 
180.000000 -132.000000 564.000000 
156.000000 -108.000000 564.000000 
180.000000 -108.000000 564.000000 
12.000000 -84.000000 492.000000 
36.000000 -84.000000 492.000000 
12.000000 -60.000000 492.000000 
36.000000 -60.000000 492.000000 
12.000000 -60.000000 516.000000 
60.000000 -84.000000 492.000000 
84.000000 -84.000000 492.000000 
60.000000 -60.000000 492.000000 
60.000000 -84.000000 516.000000 
84.000000 -60.000000 492.000000 
84.000000 -84.000000 516.000000 
60.000000 -60.000000 516.000000 
84.000000 -60.000000 516.000000 
12.000000 -36.000000 492.000000 
36.000000 -36.000000 492.000000 
12.000000 -12.000000 492.000000 
12.000000 -36.000000 516.000000 
36.000000 -36.000000 516.000000 
12.000000 -12.000000 516.000000 
36.000000 -12.000000 516.000000 
12.000000 -84.000000 540.000000 
12.000000 -60.000000 540.000000 
12.000000 -84.000000 564.000000 
12.000000 -60.000000 564.000000 
60.000000 -36.000000 492.000000 
84.000000 -36.000000 492.000000 
60.000000 -12.000000 492.000000 
60.000000 -36.000000 516.000000 
84.000000 -12.000000 492.000000 
84.000000 -36.000000 516.000000 
60.000000 -12.000000 516.000000 
84.000000 -12.000000 516.000000 
60.000000 -84.000000 540.000000 
84.000000 -84.000000 540.000000 
60.000000 -60.000000 540.000000 
60.000000 -84.000000 564.000000 
84.000000 -60.000000 540.000000 
84.000000 -84.000000 564.000000 
60.000000 -60.000000 564.000000 
84.000000 -60.000000 564.000000 
12.000000 -36.000000 540.000000 
12.000000 -12.000000 540.000000 
12.000000 -36.000000 564.000000 
12.000000 -12.000000 564.000000 
60.000000 -36.000000 540.000000 
84.000000 -36.000000 540.000000 
60.000000 -12.000000 540.000000 
60.000000 -36.000000 564.000000 
84.000000 -12.000000 540.000000 
84.000000 -36.000000 564.000000 
60.000000 -12.000000 564.000000 
84.000000 -12.000000 564.000000 
108.000000 -84.000000 492.000000 
132.000000 -84.000000 492.000000 
108.000000 -60.000000 492.000000 
108.000000 -84.000000 516.000000 
132.000000 -60.000000 492.000000 
132.000000 -84.000000 516.000000 
132.000000 -60.000000 516.000000 
156.000000 -84.000000 492.000000 
156.000000 -84.000000 516.000000 
180.000000 -84.000000 516.000000 
156.000000 -60.000000 516.000000 
108.000000 -36.000000 492.000000 
108.000000 -36.000000 516.000000 
132.000000 -36.000000 516.000000 
108.000000 -12.000000 516.000000 
132.000000 -84.000000 540.000000 
108.000000 -60.000000 540.000000 
108.000000 -84.000000 564.000000 
132.000000 -84.000000 564.000000 
108.000000 -60.000000 564.000000 
132.000000 -60.000000 564.000000 
156.000000 -84.000000 540.000000 
180.000000 -84.000000 540.000000 
156.000000 -60.000000 540.000000 
156.000000 -84.000000 564.000000 
180.000000 -84.000000 564.000000 
156.000000 -60.000000 564.000000 
108.000000 -12.000000 540.000000 
108.000000 -36.000000 564.000000 
132.000000 -36.000000 564.000000 
108.000000 -12.000000 564.000000 
132.000000 -12.000000 564.000000 
132.000000 -204.000000 588.000000 
132.000000 -204.000000 612.000000 
156.000000 -204.000000 588.000000 
180.000000 -204.000000 588.000000 
180.000000 -204.000000 612.000000 
204.000000 -180.000000 540.000000 
204.000000 -156.000000 540.000000 
204.000000 -180.000000 564.000000 
228.000000 -180.000000 564.000000 
204.000000 -156.000000 564.000000 
228.000000 -156.000000 564.000000 
204.000000 -132.000000 564.000000 
204.000000 -108.000000 564.000000 
348.000000 -300.000000 612.000000 
252.000000 -252.000000 612.000000 
276.000000 -252.000000 612.000000 
204.000000 -204.000000 588.000000 
204.000000 -228.000000 612.000000 
228.000000 -204.000000 588.000000 
228.000000 -228.000000 612.000000 
204.000000 -204.000000 612.000000 
228.000000 -204.000000 612.000000 
252.000000 -204.000000 588.000000 
252.000000 -228.000000 612.000000 
276.000000 -228.000000 612.000000 
252.000000 -204.000000 612.000000 
276.000000 -204.000000 612.000000 
252.000000 -252.000000 636.000000 
276.000000 -252.000000 636.000000 
276.000000 -252.000000 660.000000 
228.000000 -228.000000 636.000000 
204.000000 -204.000000 636.000000 
252.000000 -228.000000 636.000000 
276.000000 -228.000000 636.000000 
252.000000 -228.000000 660.000000 
276.000000 -204.000000 636.000000 
276.000000 -228.000000 660.000000 
252.000000 -204.000000 660.000000 
276.000000 -204.000000 660.000000 
300.000000 -276.000000 612.000000 
324.000000 -276.000000 612.000000 
300.000000 -252.000000 612.000000 
324.000000 -252.000000 612.000000 
348.000000 -276.000000 612.000000 
348.000000 -252.000000 612.000000 
372.000000 -252.000000 612.000000 
300.000000 -228.000000 612.000000 
324.000000 -228.000000 612.000000 
300.000000 -204.000000 612.000000 
324.000000 -204.000000 612.000000 
300.000000 -276.000000 636.000000 
324.000000 -276.000000 636.000000 
300.000000 -252.000000 636.000000 
300.000000 -276.000000 660.000000 
324.000000 -252.000000 636.000000 
324.000000 -276.000000 660.000000 
300.000000 -252.000000 660.000000 
324.000000 -252.000000 660.000000 
348.000000 -228.000000 612.000000 
372.000000 -228.000000 612.000000 
348.000000 -204.000000 612.000000 
372.000000 -204.000000 612.000000 
348.000000 -276.000000 636.000000 
372.000000 -276.000000 636.000000 
348.000000 -252.000000 636.000000 
348.000000 -276.000000 660.000000 
372.000000 -252.000000 636.000000 
372.000000 -276.000000 660.000000 
348.000000 -252.000000 660.000000 
372.000000 -252.000000 660.000000 
300.000000 -228.000000 636.000000 
324.000000 -228.000000 636.000000 
300.000000 -204.000000 636.000000 
300.000000 -228.000000 660.000000 
324.000000 -204.000000 636.000000 
324.000000 -228.000000 660.000000 
300.000000 -204.000000 660.000000 
324.000000 -204.000000 660.000000 
348.000000 -228.000000 636.000000 
372.000000 -228.000000 636.000000 
348.000000 -204.000000 636.000000 
372.000000 -204.000000 636.000000 
372.000000 -228.000000 660.000000 
348.000000 -204.000000 660.000000 
372.000000 -204.000000 660.000000 
276.000000 -228.000000 684.000000 
252.000000 -204.000000 684.000000 
276.000000 -204.000000 684.000000 
276.000000 -204.000000 708.000000 
300.000000 -252.000000 684.000000 
324.000000 -252.000000 684.000000 
348.000000 -252.000000 684.000000 
372.000000 -252.000000 684.000000 
348.000000 -252.000000 708.000000 
300.000000 -228.000000 684.000000 
324.000000 -228.000000 684.000000 
300.000000 -204.000000 684.000000 
300.000000 -228.000000 708.000000 
324.000000 -204.000000 684.000000 
324.000000 -228.000000 708.000000 
300.000000 -204.000000 708.000000 
324.000000 -204.000000 708.000000 
348.000000 -228.000000 684.000000 
372.000000 -228.000000 684.000000 
348.000000 -204.000000 684.000000 
348.000000 -228.000000 708.000000 
372.000000 -204.000000 684.000000 
84.000000 -180.000000 588.000000 
84.000000 -156.000000 588.000000 
84.000000 -132.000000 588.000000 
84.000000 -108.000000 588.000000 
108.000000 -180.000000 588.000000 
108.000000 -156.000000 588.000000 
132.000000 -156.000000 588.000000 
132.000000 -156.000000 612.000000 
156.000000 -180.000000 588.000000 
180.000000 -180.000000 588.000000 
156.000000 -156.000000 588.000000 
156.000000 -180.000000 612.000000 
180.000000 -156.000000 588.000000 
180.000000 -180.000000 612.000000 
156.000000 -156.000000 612.000000 
180.000000 -156.000000 612.000000 
108.000000 -132.000000 588.000000 
132.000000 -132.000000 588.000000 
108.000000 -108.000000 588.000000 
108.000000 -132.000000 612.000000 
132.000000 -108.000000 588.000000 
132.000000 -132.000000 612.000000 
108.000000 -108.000000 612.000000 
132.000000 -108.000000 612.000000 
156.000000 -132.000000 588.000000 
180.000000 -132.000000 588.000000 
156.000000 -108.000000 588.000000 
156.000000 -132.000000 612.000000 
180.000000 -108.000000 588.000000 
180.000000 -132.000000 612.000000 
156.000000 -108.000000 612.000000 
180.000000 -108.000000 612.000000 
180.000000 -180.000000 636.000000 
180.000000 -156.000000 636.000000 
156.000000 -132.000000 636.000000 
180.000000 -132.000000 636.000000 
156.000000 -108.000000 636.000000 
180.000000 -108.000000 636.000000 
180.000000 -108.000000 660.000000 
12.000000 -60.000000 588.000000 
84.000000 -84.000000 588.000000 
108.000000 -84.000000 588.000000 
132.000000 -84.000000 588.000000 
108.000000 -60.000000 588.000000 
108.000000 -84.000000 612.000000 
132.000000 -60.000000 588.000000 
132.000000 -84.000000 612.000000 
132.000000 -60.000000 612.000000 
156.000000 -84.000000 588.000000 
180.000000 -84.000000 588.000000 
156.000000 -60.000000 588.000000 
156.000000 -84.000000 612.000000 
180.000000 -60.000000 588.000000 
180.000000 -84.000000 612.000000 
156.000000 -60.000000 612.000000 
180.000000 -60.000000 612.000000 
108.000000 -36.000000 588.000000 
132.000000 -36.000000 588.000000 
156.000000 -36.000000 588.000000 
180.000000 -36.000000 588.000000 
180.000000 -12.000000 588.000000 
180.000000 -36.000000 612.000000 
156.000000 -84.000000 636.000000 
180.000000 -84.000000 636.000000 
180.000000 -60.000000 636.000000 
204.000000 -180.000000 588.000000 
228.000000 -180.000000 588.000000 
204.000000 -156.000000 588.000000 
204.000000 -180.000000 612.000000 
228.000000 -156.000000 588.000000 
228.000000 -180.000000 612.000000 
204.000000 -156.000000 612.000000 
228.000000 -156.000000 612.000000 
252.000000 -180.000000 588.000000 
252.000000 -156.000000 588.000000 
252.000000 -180.000000 612.000000 
276.000000 -180.000000 612.000000 
252.000000 -156.000000 612.000000 
276.000000 -156.000000 612.000000 
204.000000 -132.000000 588.000000 
228.000000 -132.000000 588.000000 
204.000000 -108.000000 588.000000 
204.000000 -132.000000 612.000000 
228.000000 -108.000000 588.000000 
228.000000 -132.000000 612.000000 
204.000000 -108.000000 612.000000 
228.000000 -108.000000 612.000000 
204.000000 -180.000000 636.000000 
228.000000 -180.000000 636.000000 
204.000000 -156.000000 636.000000 
228.000000 -156.000000 636.000000 
228.000000 -180.000000 660.000000 
204.000000 -156.000000 660.000000 
228.000000 -156.000000 660.000000 
252.000000 -132.000000 588.000000 
276.000000 -132.000000 588.000000 
252.000000 -108.000000 588.000000 
252.000000 -132.000000 612.000000 
276.000000 -108.000000 588.000000 
276.000000 -132.000000 612.000000 
252.000000 -108.000000 612.000000 
276.000000 -108.000000 612.000000 
276.000000 -180.000000 636.000000 
252.000000 -180.000000 660.000000 
276.000000 -156.000000 636.000000 
276.000000 -180.000000 660.000000 
252.000000 -156.000000 660.000000 
276.000000 -156.000000 660.000000 
204.000000 -132.000000 636.000000 
228.000000 -132.000000 636.000000 
204.000000 -108.000000 636.000000 
204.000000 -132.000000 660.000000 
228.000000 -108.000000 636.000000 
228.000000 -132.000000 660.000000 
204.000000 -108.000000 660.000000 
228.000000 -108.000000 660.000000 
276.000000 -132.000000 636.000000 
252.000000 -108.000000 636.000000 
252.000000 -132.000000 660.000000 
276.000000 -108.000000 636.000000 
276.000000 -132.000000 660.000000 
252.000000 -108.000000 660.000000 
276.000000 -108.000000 660.000000 
300.000000 -180.000000 612.000000 
324.000000 -180.000000 612.000000 
300.000000 -156.000000 612.000000 
324.000000 -156.000000 612.000000 
372.000000 -180.000000 612.000000 
372.000000 -156.000000 612.000000 
300.000000 -132.000000 588.000000 
300.000000 -132.000000 612.000000 
324.000000 -132.000000 612.000000 
300.000000 -108.000000 612.000000 
300.000000 -180.000000 636.000000 
324.000000 -180.000000 636.000000 
300.000000 -156.000000 636.000000 
300.000000 -180.000000 660.000000 
324.000000 -156.000000 636.000000 
324.000000 -180.000000 660.000000 
300.000000 -156.000000 660.000000 
324.000000 -156.000000 660.000000 
348.000000 -180.000000 636.000000 
372.000000 -180.000000 636.000000 
348.000000 -156.000000 636.000000 
348.000000 -180.000000 660.000000 
372.000000 -156.000000 636.000000 
300.000000 -132.000000 636.000000 
324.000000 -132.000000 636.000000 
300.000000 -108.000000 636.000000 
300.000000 -132.000000 660.000000 
324.000000 -108.000000 636.000000 
324.000000 -132.000000 660.000000 
300.000000 -108.000000 660.000000 
348.000000 -132.000000 636.000000 
372.000000 -132.000000 636.000000 
348.000000 -108.000000 636.000000 
204.000000 -84.000000 588.000000 
228.000000 -84.000000 588.000000 
204.000000 -60.000000 588.000000 
204.000000 -84.000000 612.000000 
228.000000 -60.000000 588.000000 
228.000000 -84.000000 612.000000 
204.000000 -60.000000 612.000000 
228.000000 -60.000000 612.000000 
252.000000 -84.000000 612.000000 
276.000000 -84.000000 612.000000 
252.000000 -60.000000 612.000000 
276.000000 -60.000000 612.000000 
204.000000 -36.000000 588.000000 
204.000000 -12.000000 588.000000 
204.000000 -36.000000 612.000000 
228.000000 -36.000000 612.000000 
204.000000 -12.000000 612.000000 
204.000000 -84.000000 636.000000 
228.000000 -84.000000 636.000000 
204.000000 -60.000000 636.000000 
204.000000 -84.000000 660.000000 
228.000000 -60.000000 636.000000 
228.000000 -84.000000 660.000000 
204.000000 -60.000000 660.000000 
252.000000 -36.000000 612.000000 
252.000000 -84.000000 636.000000 
276.000000 -84.000000 636.000000 
252.000000 -60.000000 636.000000 
252.000000 -84.000000 660.000000 
276.000000 -60.000000 636.000000 
276.000000 -84.000000 660.000000 
228.000000 -36.000000 636.000000 
252.000000 -36.000000 636.000000 
276.000000 -36.000000 636.000000 
252.000000 -12.000000 636.000000 
228.000000 -156.000000 684.000000 
252.000000 -180.000000 684.000000 
276.000000 -180.000000 684.000000 
252.000000 -156.000000 684.000000 
252.000000 -180.000000 708.000000 
276.000000 -156.000000 684.000000 
276.000000 -180.000000 708.000000 
228.000000 -132.000000 684.000000 
252.000000 -132.000000 684.000000 
276.000000 -132.000000 684.000000 
300.000000 -84.000000 612.000000 
300.000000 -60.000000 612.000000 
300.000000 -60.000000 636.000000 
300.000000 -180.000000 684.000000 
324.000000 -180.000000 684.000000 
300.000000 -156.000000 684.000000 
300.000000 -180.000000 708.000000 
324.000000 -156.000000 684.000000 
324.000000 -180.000000 708.000000 
348.000000 -180.000000 684.000000 
300.000000 -132.000000 684.000000 
468.000000 -324.000000 564.000000 
444.000000 -300.000000 564.000000 
468.000000 -300.000000 564.000000 
516.000000 -300.000000 516.000000 
516.000000 -300.000000 540.000000 
492.000000 -300.000000 564.000000 
420.000000 -276.000000 564.000000 
420.000000 -252.000000 564.000000 
444.000000 -276.000000 564.000000 
468.000000 -276.000000 564.000000 
468.000000 -252.000000 564.000000 
492.000000 -276.000000 540.000000 
492.000000 -276.000000 564.000000 
420.000000 -300.000000 588.000000 
444.000000 -300.000000 588.000000 
396.000000 -276.000000 588.000000 
420.000000 -276.000000 588.000000 
396.000000 -252.000000 588.000000 
396.000000 -276.000000 612.000000 
420.000000 -252.000000 588.000000 
420.000000 -276.000000 612.000000 
396.000000 -252.000000 612.000000 
420.000000 -252.000000 612.000000 
444.000000 -276.000000 588.000000 
468.000000 -276.000000 588.000000 
444.000000 -252.000000 588.000000 
444.000000 -276.000000 612.000000 
468.000000 -252.000000 588.000000 
444.000000 -252.000000 612.000000 
468.000000 -252.000000 612.000000 
420.000000 -228.000000 588.000000 
396.000000 -228.000000 612.000000 
420.000000 -228.000000 612.000000 
396.000000 -204.000000 612.000000 
420.000000 -204.000000 612.000000 
396.000000 -276.000000 636.000000 
420.000000 -276.000000 636.000000 
396.000000 -252.000000 636.000000 
420.000000 -252.000000 636.000000 
396.000000 -252.000000 660.000000 
444.000000 -228.000000 588.000000 
444.000000 -228.000000 612.000000 
396.000000 -228.000000 636.000000 
420.000000 -228.000000 636.000000 
396.000000 -204.000000 636.000000 
492.000000 -276.000000 588.000000 
396.000000 -252.000000 684.000000 
396.000000 -180.000000 612.000000 
420.000000 -180.000000 612.000000 
396.000000 -156.000000 612.000000 
396.000000 -180.000000 636.000000 
396.000000 -156.000000 636.000000 
-420.000000 132.000000 12.000000 
-396.000000 108.000000 36.000000 
-420.000000 132.000000 36.000000 
-396.000000 132.000000 36.000000 
-444.000000 156.000000 12.000000 
-444.000000 180.000000 12.000000 
-420.000000 156.000000 12.000000 
-420.000000 180.000000 12.000000 
-420.000000 156.000000 36.000000 
-396.000000 156.000000 36.000000 
-420.000000 180.000000 36.000000 
-396.000000 180.000000 36.000000 
-396.000000 132.000000 60.000000 
-540.000000 180.000000 348.000000 
-516.000000 180.000000 372.000000 
-564.000000 228.000000 228.000000 
-564.000000 228.000000 252.000000 
-564.000000 204.000000 276.000000 
-564.000000 228.000000 276.000000 
-540.000000 228.000000 276.000000 
-564.000000 204.000000 300.000000 
-540.000000 204.000000 300.000000 
-564.000000 204.000000 324.000000 
-540.000000 228.000000 300.000000 
-540.000000 204.000000 324.000000 
-540.000000 228.000000 324.000000 
-564.000000 204.000000 348.000000 
-540.000000 204.000000 348.000000 
-540.000000 228.000000 348.000000 
-540.000000 204.000000 372.000000 
-540.000000 228.000000 372.000000 
-516.000000 204.000000 372.000000 
-516.000000 228.000000 372.000000 
-324.000000 36.000000 60.000000 
-300.000000 36.000000 60.000000 
-348.000000 84.000000 60.000000 
-324.000000 60.000000 60.000000 
-300.000000 60.000000 60.000000 
-324.000000 84.000000 60.000000 
-300.000000 84.000000 60.000000 
-204.000000 12.000000 36.000000 
-228.000000 36.000000 36.000000 
-204.000000 36.000000 36.000000 
-252.000000 36.000000 60.000000 
-228.000000 60.000000 36.000000 
-204.000000 60.000000 36.000000 
-228.000000 84.000000 36.000000 
-204.000000 84.000000 36.000000 
-204.000000 36.000000 60.000000 
-276.000000 60.000000 60.000000 
-252.000000 60.000000 60.000000 
-276.000000 84.000000 60.000000 
-252.000000 84.000000 60.000000 
-228.000000 60.000000 60.000000 
-204.000000 60.000000 60.000000 
-228.000000 84.000000 60.000000 
-204.000000 84.000000 60.000000 
-372.000000 108.000000 36.000000 
-348.000000 108.000000 36.000000 
-372.000000 132.000000 36.000000 
-348.000000 132.000000 36.000000 
-372.000000 156.000000 36.000000 
-348.000000 156.000000 36.000000 
-372.000000 108.000000 60.000000 
-348.000000 108.000000 60.000000 
-372.000000 132.000000 60.000000 
-348.000000 132.000000 60.000000 
-324.000000 108.000000 60.000000 
-300.000000 108.000000 60.000000 
-324.000000 132.000000 60.000000 
-300.000000 132.000000 60.000000 
-300.000000 132.000000 84.000000 
-372.000000 156.000000 60.000000 
-348.000000 156.000000 60.000000 
-324.000000 156.000000 60.000000 
-276.000000 108.000000 60.000000 
-252.000000 108.000000 60.000000 
-276.000000 132.000000 60.000000 
-276.000000 132.000000 84.000000 
-228.000000 108.000000 60.000000 
-204.000000 108.000000 60.000000 
-180.000000 12.000000 36.000000 
-156.000000 36.000000 12.000000 
-156.000000 12.000000 36.000000 
-180.000000 36.000000 36.000000 
-156.000000 36.000000 36.000000 
-132.000000 12.000000 12.000000 
-108.000000 12.000000 12.000000 
-132.000000 36.000000 12.000000 
-108.000000 36.000000 12.000000 
-132.000000 36.000000 36.000000 
-180.000000 60.000000 12.000000 
-156.000000 60.000000 12.000000 
-180.000000 60.000000 36.000000 
-156.000000 60.000000 36.000000 
-180.000000 84.000000 36.000000 
-156.000000 84.000000 36.000000 
-180.000000 36.000000 60.000000 
-132.000000 60.000000 12.000000 
-108.000000 60.000000 12.000000 
-132.000000 60.000000 36.000000 
-180.000000 60.000000 60.000000 
-180.000000 84.000000 60.000000 
-36.000000 12.000000 180.000000 
-12.000000 12.000000 180.000000 
-60.000000 12.000000 228.000000 
-36.000000 12.000000 204.000000 
-12.000000 12.000000 204.000000 
-36.000000 12.000000 228.000000 
-12.000000 12.000000 228.000000 
-60.000000 12.000000 252.000000 
-84.000000 12.000000 276.000000 
-60.000000 12.000000 276.000000 
-84.000000 36.000000 276.000000 
-60.000000 36.000000 276.000000 
-36.000000 12.000000 252.000000 
-12.000000 12.000000 252.000000 
-36.000000 36.000000 252.000000 
-36.000000 12.000000 276.000000 
-12.000000 12.000000 276.000000 
-36.000000 36.000000 276.000000 
-156.000000 12.000000 324.000000 
-108.000000 12.000000 300.000000 
-132.000000 12.000000 324.000000 
-108.000000 36.000000 300.000000 
-108.000000 12.000000 324.000000 
-132.000000 36.000000 324.000000 
-108.000000 36.000000 324.000000 
-156.000000 12.000000 348.000000 
-180.000000 12.000000 372.000000 
-156.000000 36.000000 348.000000 
-156.000000 12.000000 372.000000 
-180.000000 36.000000 372.000000 
-156.000000 36.000000 372.000000 
-108.000000 60.000000 324.000000 
-132.000000 12.000000 348.000000 
-108.000000 12.000000 348.000000 
-132.000000 36.000000 348.000000 
-132.000000 12.000000 372.000000 
-108.000000 36.000000 348.000000 
-132.000000 36.000000 372.000000 
-156.000000 60.000000 348.000000 
-180.000000 60.000000 372.000000 
-156.000000 84.000000 348.000000 
-156.000000 60.000000 372.000000 
-180.000000 84.000000 372.000000 
-156.000000 84.000000 372.000000 
-132.000000 60.000000 348.000000 
-108.000000 60.000000 348.000000 
-132.000000 84.000000 348.000000 
-132.000000 60.000000 372.000000 
-132.000000 84.000000 372.000000 
-84.000000 12.000000 300.000000 
-60.000000 12.000000 300.000000 
-84.000000 36.000000 300.000000 
-84.000000 12.000000 324.000000 
-60.000000 36.000000 300.000000 
-84.000000 36.000000 324.000000 
-12.000000 12.000000 300.000000 
-36.000000 12.000000 324.000000 
-12.000000 12.000000 324.000000 
-12.000000 36.000000 324.000000 
-84.000000 60.000000 324.000000 
-84.000000 36.000000 348.000000 
-12.000000 12.000000 348.000000 
-36.000000 12.000000 372.000000 
-12.000000 12.000000 372.000000 
-12.000000 36.000000 372.000000 
-396.000000 60.000000 444.000000 
-420.000000 84.000000 444.000000 
-396.000000 84.000000 444.000000 
-420.000000 84.000000 468.000000 
-396.000000 84.000000 468.000000 
-492.000000 132.000000 420.000000 
-540.000000 180.000000 396.000000 
-516.000000 156.000000 396.000000 
-516.000000 180.000000 396.000000 
-516.000000 156.000000 420.000000 
-492.000000 180.000000 396.000000 
-492.000000 156.000000 420.000000 
-516.000000 180.000000 420.000000 
-492.000000 180.000000 420.000000 
-492.000000 156.000000 444.000000 
-516.000000 180.000000 444.000000 
-492.000000 180.000000 444.000000 
-468.000000 132.000000 420.000000 
-468.000000 156.000000 420.000000 
-468.000000 180.000000 420.000000 
-444.000000 108.000000 444.000000 
-468.000000 132.000000 444.000000 
-444.000000 132.000000 444.000000 
-444.000000 108.000000 468.000000 
-468.000000 132.000000 468.000000 
-444.000000 132.000000 468.000000 
-420.000000 108.000000 444.000000 
-396.000000 108.000000 444.000000 
-420.000000 132.000000 444.000000 
-420.000000 108.000000 468.000000 
-396.000000 132.000000 444.000000 
-396.000000 108.000000 468.000000 
-420.000000 132.000000 468.000000 
-396.000000 132.000000 468.000000 
-468.000000 156.000000 444.000000 
-444.000000 156.000000 444.000000 
-468.000000 180.000000 444.000000 
-444.000000 180.000000 444.000000 
-444.000000 156.000000 468.000000 
-444.000000 180.000000 468.000000 
-420.000000 156.000000 444.000000 
-396.000000 156.000000 444.000000 
-420.000000 180.000000 444.000000 
-420.000000 156.000000 468.000000 
-396.000000 180.000000 444.000000 
-396.000000 156.000000 468.000000 
-420.000000 180.000000 468.000000 
-396.000000 180.000000 468.000000 
-540.000000 204.000000 396.000000 
-516.000000 204.000000 396.000000 
-492.000000 204.000000 396.000000 
-516.000000 228.000000 396.000000 
-516.000000 204.000000 420.000000 
-492.000000 204.000000 420.000000 
-492.000000 204.000000 444.000000 
-516.000000 252.000000 468.000000 
-468.000000 204.000000 444.000000 
-444.000000 204.000000 444.000000 
-420.000000 204.000000 444.000000 
-396.000000 204.000000 444.000000 
-516.000000 252.000000 492.000000 
-420.000000 180.000000 660.000000 
-396.000000 108.000000 684.000000 
-396.000000 180.000000 684.000000 
-492.000000 276.000000 588.000000 
-468.000000 252.000000 612.000000 
-444.000000 252.000000 612.000000 
-444.000000 276.000000 612.000000 
-468.000000 204.000000 636.000000 
-444.000000 228.000000 660.000000 
-420.000000 228.000000 636.000000 
-420.000000 204.000000 660.000000 
-396.000000 228.000000 636.000000 
-396.000000 204.000000 660.000000 
-420.000000 228.000000 660.000000 
-396.000000 228.000000 660.000000 
-444.000000 252.000000 636.000000 
-468.000000 276.000000 636.000000 
-444.000000 276.000000 636.000000 
-444.000000 252.000000 660.000000 
-420.000000 252.000000 636.000000 
-396.000000 252.000000 636.000000 
-420.000000 252.000000 660.000000 
-396.000000 252.000000 660.000000 
-396.000000 204.000000 684.000000 
-396.000000 228.000000 684.000000 
-372.000000 36.000000 444.000000 
-348.000000 36.000000 444.000000 
-324.000000 36.000000 444.000000 
-300.000000 36.000000 444.000000 
-300.000000 36.000000 468.000000 
-372.000000 60.000000 444.000000 
-348.000000 60.000000 444.000000 
-372.000000 84.000000 444.000000 
-348.000000 84.000000 444.000000 
-372.000000 84.000000 468.000000 
-348.000000 84.000000 468.000000 
-324.000000 60.000000 444.000000 
-300.000000 60.000000 444.000000 
-324.000000 84.000000 444.000000 
-300.000000 84.000000 444.000000 
-324.000000 84.000000 468.000000 
-300.000000 84.000000 468.000000 
-252.000000 36.000000 396.000000 
-276.000000 36.000000 420.000000 
-252.000000 36.000000 420.000000 
-228.000000 12.000000 396.000000 
-204.000000 12.000000 396.000000 
-228.000000 36.000000 396.000000 
-204.000000 36.000000 396.000000 
-228.000000 36.000000 420.000000 
-276.000000 60.000000 420.000000 
-252.000000 60.000000 420.000000 
-252.000000 84.000000 420.000000 
-276.000000 36.000000 444.000000 
-252.000000 36.000000 444.000000 
-228.000000 60.000000 396.000000 
-204.000000 60.000000 396.000000 
-228.000000 60.000000 420.000000 
-204.000000 84.000000 396.000000 
-204.000000 60.000000 420.000000 
-228.000000 84.000000 420.000000 
-204.000000 84.000000 420.000000 
-276.000000 60.000000 444.000000 
-252.000000 60.000000 444.000000 
-276.000000 84.000000 444.000000 
-276.000000 60.000000 468.000000 
-252.000000 84.000000 444.000000 
-276.000000 84.000000 468.000000 
-228.000000 60.000000 444.000000 
-228.000000 84.000000 444.000000 
-372.000000 108.000000 444.000000 
-348.000000 108.000000 444.000000 
-372.000000 132.000000 444.000000 
-372.000000 108.000000 468.000000 
-348.000000 132.000000 444.000000 
-348.000000 108.000000 468.000000 
-372.000000 132.000000 468.000000 
-348.000000 132.000000 468.000000 
-324.000000 108.000000 444.000000 
-300.000000 108.000000 444.000000 
-324.000000 132.000000 444.000000 
-324.000000 108.000000 468.000000 
-300.000000 132.000000 444.000000 
-300.000000 108.000000 468.000000 
-324.000000 132.000000 468.000000 
-300.000000 132.000000 468.000000 
-372.000000 156.000000 444.000000 
-348.000000 156.000000 444.000000 
-372.000000 180.000000 444.000000 
-372.000000 156.000000 468.000000 
-348.000000 180.000000 444.000000 
-348.000000 156.000000 468.000000 
-372.000000 180.000000 468.000000 
-324.000000 156.000000 444.000000 
-300.000000 156.000000 444.000000 
-324.000000 180.000000 444.000000 
-324.000000 156.000000 468.000000 
-300.000000 156.000000 468.000000 
-252.000000 108.000000 420.000000 
-228.000000 108.000000 420.000000 
-204.000000 108.000000 420.000000 
-228.000000 132.000000 420.000000 
-276.000000 108.000000 444.000000 
-252.000000 108.000000 444.000000 
-276.000000 132.000000 444.000000 
-276.000000 108.000000 468.000000 
-252.000000 132.000000 444.000000 
-252.000000 108.000000 468.000000 
-276.000000 132.000000 468.000000 
-252.000000 132.000000 468.000000 
-228.000000 108.000000 444.000000 
-228.000000 132.000000 444.000000 
-252.000000 156.000000 444.000000 
-276.000000 156.000000 468.000000 
-252.000000 156.000000 468.000000 
-276.000000 132.000000 492.000000 
-180.000000 12.000000 396.000000 
-156.000000 12.000000 396.000000 
-180.000000 36.000000 396.000000 
-156.000000 36.000000 396.000000 
-180.000000 60.000000 396.000000 
-156.000000 60.000000 396.000000 
-180.000000 84.000000 396.000000 
-180.000000 60.000000 420.000000 
-156.000000 84.000000 396.000000 
-180.000000 84.000000 420.000000 
-108.000000 12.000000 468.000000 
-60.000000 12.000000 420.000000 
-36.000000 12.000000 396.000000 
-12.000000 12.000000 396.000000 
-36.000000 12.000000 420.000000 
-12.000000 12.000000 420.000000 
-36.000000 36.000000 420.000000 
-12.000000 36.000000 420.000000 
-84.000000 12.000000 444.000000 
-60.000000 12.000000 444.000000 
-84.000000 36.000000 444.000000 
-84.000000 12.000000 468.000000 
-60.000000 36.000000 444.000000 
-60.000000 12.000000 468.000000 
-84.000000 36.000000 468.000000 
-60.000000 36.000000 468.000000 
-36.000000 12.000000 444.000000 
-12.000000 12.000000 444.000000 
-36.000000 36.000000 444.000000 
-36.000000 12.000000 468.000000 
-12.000000 36.000000 444.000000 
-12.000000 12.000000 468.000000 
-36.000000 36.000000 468.000000 
-12.000000 36.000000 468.000000 
-60.000000 60.000000 444.000000 
-84.000000 60.000000 468.000000 
-60.000000 60.000000 468.000000 
-36.000000 60.000000 444.000000 
-12.000000 60.000000 444.000000 
-36.000000 60.000000 468.000000 
-12.000000 60.000000 468.000000 
-180.000000 108.000000 420.000000 
-108.000000 12.000000 492.000000 
-132.000000 12.000000 516.000000 
-108.000000 36.000000 492.000000 
-108.000000 12.000000 516.000000 
-132.000000 36.000000 516.000000 
-108.000000 36.000000 516.000000 
-156.000000 12.000000 540.000000 
-156.000000 36.000000 540.000000 
-156.000000 12.000000 564.000000 
-156.000000 36.000000 564.000000 
-108.000000 60.000000 492.000000 
-132.000000 60.000000 516.000000 
-108.000000 60.000000 516.000000 
-132.000000 12.000000 540.000000 
-108.000000 12.000000 540.000000 
-132.000000 36.000000 540.000000 
-132.000000 12.000000 564.000000 
-108.000000 36.000000 540.000000 
-108.000000 12.000000 564.000000 
-132.000000 36.000000 564.000000 
-108.000000 36.000000 564.000000 
-132.000000 60.000000 540.000000 
-108.000000 60.000000 540.000000 
-132.000000 60.000000 564.000000 
-108.000000 60.000000 564.000000 
-108.000000 84.000000 564.000000 
-84.000000 12.000000 492.000000 
-60.000000 12.000000 492.000000 
-84.000000 36.000000 492.000000 
-84.000000 12.000000 516.000000 
-60.000000 36.000000 492.000000 
-60.000000 12.000000 516.000000 
-84.000000 36.000000 516.000000 
-60.000000 36.000000 516.000000 
-36.000000 12.000000 492.000000 
-12.000000 12.000000 492.000000 
-36.000000 36.000000 492.000000 
-36.000000 12.000000 516.000000 
-12.000000 36.000000 492.000000 
-12.000000 12.000000 516.000000 
-36.000000 36.000000 516.000000 
-12.000000 36.000000 516.000000 
-84.000000 60.000000 492.000000 
-60.000000 60.000000 492.000000 
-84.000000 60.000000 516.000000 
-60.000000 60.000000 516.000000 
-84.000000 84.000000 516.000000 
-84.000000 12.000000 540.000000 
-60.000000 12.000000 540.000000 
-84.000000 36.000000 540.000000 
-84.000000 12.000000 564.000000 
-60.000000 36.000000 540.000000 
-60.000000 12.000000 564.000000 
-84.000000 36.000000 564.000000 
-60.000000 36.000000 564.000000 
-36.000000 60.000000 492.000000 
-12.000000 60.000000 492.000000 
-36.000000 60.000000 516.000000 
-12.000000 84.000000 492.000000 
-12.000000 60.000000 516.000000 
-36.000000 12.000000 540.000000 
-12.000000 12.000000 540.000000 
-36.000000 36.000000 540.000000 
-36.000000 12.000000 564.000000 
-12.000000 36.000000 540.000000 
-12.000000 12.000000 564.000000 
-36.000000 36.000000 564.000000 
-12.000000 36.000000 564.000000 
-84.000000 60.000000 540.000000 
-60.000000 60.000000 540.000000 
-84.000000 84.000000 540.000000 
-84.000000 60.000000 564.000000 
-60.000000 60.000000 564.000000 
-84.000000 84.000000 564.000000 
-60.000000 84.000000 564.000000 
-36.000000 60.000000 540.000000 
-12.000000 60.000000 540.000000 
-36.000000 60.000000 564.000000 
-12.000000 60.000000 564.000000 
-204.000000 36.000000 588.000000 
-204.000000 12.000000 612.000000 
-204.000000 36.000000 612.000000 
-276.000000 12.000000 660.000000 
-204.000000 60.000000 588.000000 
-228.000000 60.000000 612.000000 
-204.000000 60.000000 612.000000 
-204.000000 84.000000 612.000000 
-228.000000 12.000000 636.000000 
-204.000000 36.000000 636.000000 
-204.000000 12.000000 660.000000 
-252.000000 60.000000 660.000000 
-252.000000 84.000000 660.000000 
-228.000000 60.000000 636.000000 
-204.000000 60.000000 636.000000 
-228.000000 84.000000 636.000000 
-228.000000 60.000000 660.000000 
-204.000000 84.000000 636.000000 
-204.000000 60.000000 660.000000 
-228.000000 84.000000 660.000000 
-204.000000 84.000000 660.000000 
-300.000000 12.000000 684.000000 
-372.000000 60.000000 684.000000 
-348.000000 60.000000 684.000000 
-372.000000 84.000000 684.000000 
-300.000000 60.000000 684.000000 
-324.000000 84.000000 684.000000 
-300.000000 84.000000 684.000000 
-252.000000 108.000000 660.000000 
-252.000000 132.000000 660.000000 
-204.000000 108.000000 636.000000 
-228.000000 108.000000 660.000000 
-204.000000 108.000000 660.000000 
-228.000000 132.000000 660.000000 
-204.000000 132.000000 660.000000 
-252.000000 156.000000 660.000000 
-276.000000 180.000000 660.000000 
-252.000000 180.000000 660.000000 
-228.000000 156.000000 660.000000 
-204.000000 156.000000 660.000000 
-228.000000 180.000000 660.000000 
-204.000000 180.000000 660.000000 
-204.000000 12.000000 708.000000 
-252.000000 84.000000 684.000000 
-228.000000 84.000000 684.000000 
-204.000000 84.000000 684.000000 
-204.000000 12.000000 732.000000 
-372.000000 132.000000 684.000000 
-348.000000 132.000000 684.000000 
-324.000000 108.000000 684.000000 
-300.000000 108.000000 684.000000 
-324.000000 132.000000 684.000000 
-300.000000 132.000000 684.000000 
-372.000000 156.000000 684.000000 
-348.000000 156.000000 684.000000 
-372.000000 180.000000 684.000000 
-348.000000 180.000000 684.000000 
-348.000000 180.000000 708.000000 
-324.000000 156.000000 684.000000 
-300.000000 156.000000 684.000000 
-324.000000 180.000000 684.000000 
-300.000000 180.000000 684.000000 
-324.000000 180.000000 708.000000 
-300.000000 180.000000 708.000000 
-276.000000 108.000000 684.000000 
-252.000000 108.000000 684.000000 
-276.000000 132.000000 684.000000 
-252.000000 132.000000 684.000000 
-228.000000 108.000000 684.000000 
-204.000000 108.000000 684.000000 
-228.000000 132.000000 684.000000 
-204.000000 132.000000 684.000000 
-276.000000 156.000000 684.000000 
-252.000000 156.000000 684.000000 
-276.000000 180.000000 684.000000 
-276.000000 156.000000 708.000000 
-252.000000 180.000000 684.000000 
-276.000000 180.000000 708.000000 
-228.000000 156.000000 684.000000 
-204.000000 156.000000 684.000000 
-180.000000 12.000000 588.000000 
-156.000000 12.000000 588.000000 
-180.000000 36.000000 588.000000 
-180.000000 12.000000 612.000000 
-156.000000 36.000000 588.000000 
-156.000000 12.000000 612.000000 
-180.000000 36.000000 612.000000 
-156.000000 36.000000 612.000000 
-132.000000 12.000000 588.000000 
-108.000000 12.000000 588.000000 
-132.000000 36.000000 588.000000 
-132.000000 12.000000 612.000000 
-108.000000 36.000000 588.000000 
-108.000000 12.000000 612.000000 
-132.000000 36.000000 612.000000 
-108.000000 36.000000 612.000000 
-180.000000 60.000000 588.000000 
-156.000000 60.000000 588.000000 
-180.000000 84.000000 588.000000 
-180.000000 60.000000 612.000000 
-156.000000 84.000000 588.000000 
-156.000000 60.000000 612.000000 
-180.000000 84.000000 612.000000 
-156.000000 84.000000 612.000000 
-180.000000 12.000000 636.000000 
