-75.000000 45.000000 -45.000000 
-75.000000 15.000000 -15.000000 
-105.000000 45.000000 -15.000000 
-75.000000 45.000000 -15.000000 
-45.000000 15.000000 -45.000000 
-15.000000 15.000000 -45.000000 
-45.000000 45.000000 -15.000000 
-225.000000 -45.000000 45.000000 
-135.000000 -15.000000 15.000000 
-15.000000 -45.000000 15.000000 
-15.000000 -15.000000 15.000000 
-15.000000 -45.000000 45.000000 
-15.000000 -15.000000 45.000000 
-15.000000 -75.000000 75.000000 
-15.000000 -45.000000 75.000000 
-15.000000 -15.000000 75.000000 
-15.000000 -45.000000 105.000000 
-15.000000 -15.000000 105.000000 
-15.000000 -45.000000 135.000000 
-45.000000 -45.000000 165.000000 
-15.000000 -15.000000 135.000000 
-15.000000 -45.000000 165.000000 
-45.000000 -15.000000 165.000000 
-15.000000 -15.000000 165.000000 
-45.000000 -45.000000 195.000000 
-15.000000 -45.000000 195.000000 
-45.000000 -15.000000 195.000000 
-45.000000 -45.000000 225.000000 
-15.000000 -15.000000 195.000000 
-15.000000 -45.000000 225.000000 
-45.000000 -15.000000 225.000000 
-15.000000 -15.000000 225.000000 
-315.000000 -15.000000 435.000000 
-285.000000 -15.000000 435.000000 
-135.000000 -15.000000 315.000000 
-165.000000 -15.000000 345.000000 
-135.000000 -15.000000 345.000000 
-15.000000 -75.000000 285.000000 
-75.000000 -45.000000 255.000000 
-105.000000 -15.000000 255.000000 
-105.000000 -45.000000 285.000000 
-75.000000 -15.000000 255.000000 
-75.000000 -45.000000 285.000000 
-105.000000 -15.000000 285.000000 
-75.000000 -15.000000 285.000000 
-75.000000 -105.000000 315.000000 
-45.000000 -45.000000 255.000000 
-15.000000 -45.000000 255.000000 
-45.000000 -15.000000 255.000000 
-45.000000 -45.000000 285.000000 
-15.000000 -15.000000 255.000000 
-15.000000 -45.000000 285.000000 
-45.000000 -15.000000 285.000000 
-15.000000 -15.000000 285.000000 
-45.000000 -75.000000 315.000000 
-15.000000 -75.000000 315.000000 
-45.000000 -75.000000 345.000000 
-15.000000 -75.000000 345.000000 
-105.000000 -45.000000 315.000000 
-105.000000 -15.000000 315.000000 
-75.000000 -15.000000 315.000000 
-105.000000 -15.000000 345.000000 
-15.000000 -45.000000 315.000000 
-45.000000 -15.000000 315.000000 
-45.000000 -45.000000 345.000000 
-15.000000 -15.000000 315.000000 
-15.000000 -45.000000 345.000000 
-45.000000 -15.000000 345.000000 
-15.000000 -15.000000 345.000000 
-45.000000 -135.000000 435.000000 
-15.000000 -135.000000 435.000000 
-45.000000 -135.000000 465.000000 
-15.000000 -135.000000 465.000000 
-195.000000 -15.000000 375.000000 
-225.000000 -15.000000 405.000000 
-195.000000 -15.000000 405.000000 
-165.000000 -15.000000 375.000000 
-165.000000 -15.000000 405.000000 
-75.000000 -75.000000 405.000000 
-45.000000 -75.000000 375.000000 
-15.000000 -75.000000 375.000000 
-45.000000 -75.000000 405.000000 
-15.000000 -75.000000 405.000000 
-75.000000 -45.000000 405.000000 
-75.000000 -15.000000 405.000000 
-75.000000 -105.000000 435.000000 
-75.000000 -75.000000 435.000000 
-75.000000 -105.000000 465.000000 
-105.000000 -75.000000 465.000000 
-75.000000 -75.000000 465.000000 
-45.000000 -45.000000 375.000000 
-15.000000 -45.000000 375.000000 
-45.000000 -15.000000 375.000000 
-45.000000 -45.000000 405.000000 
-15.000000 -15.000000 375.000000 
-15.000000 -45.000000 405.000000 
-45.000000 -15.000000 405.000000 
-15.000000 -15.000000 405.000000 
-45.000000 -105.000000 435.000000 
-15.000000 -105.000000 435.000000 
-45.000000 -75.000000 435.000000 
-45.000000 -105.000000 465.000000 
-15.000000 -75.000000 435.000000 
-15.000000 -105.000000 465.000000 
-45.000000 -75.000000 465.000000 
-15.000000 -75.000000 465.000000 
-105.000000 -45.000000 435.000000 
-75.000000 -45.000000 435.000000 
-105.000000 -15.000000 435.000000 
-105.000000 -45.000000 465.000000 
-75.000000 -15.000000 435.000000 
-75.000000 -45.000000 465.000000 
-105.000000 -15.000000 465.000000 
-75.000000 -15.000000 465.000000 
-45.000000 -45.000000 435.000000 
-15.000000 -45.000000 435.000000 
-45.000000 -15.000000 435.000000 
-45.000000 -45.000000 465.000000 
-15.000000 -15.000000 435.000000 
-15.000000 -45.000000 465.000000 
-45.000000 -15.000000 465.000000 
-15.000000 -15.000000 465.000000 
-255.000000 -75.000000 615.000000 
-255.000000 -75.000000 645.000000 
-255.000000 -45.000000 615.000000 
-255.000000 -45.000000 645.000000 
-255.000000 -75.000000 675.000000 
-255.000000 -75.000000 705.000000 
-255.000000 -45.000000 675.000000 
-285.000000 -45.000000 705.000000 
-255.000000 -15.000000 675.000000 
-255.000000 -45.000000 705.000000 
-255.000000 -15.000000 705.000000 
-15.000000 -135.000000 495.000000 
-15.000000 -135.000000 525.000000 
-15.000000 -135.000000 555.000000 
-45.000000 -135.000000 585.000000 
-135.000000 -15.000000 525.000000 
-195.000000 -15.000000 585.000000 
-135.000000 -45.000000 555.000000 
-135.000000 -15.000000 555.000000 
-135.000000 -45.000000 585.000000 
-165.000000 -15.000000 585.000000 
-135.000000 -15.000000 585.000000 
-135.000000 -135.000000 615.000000 
-135.000000 -135.000000 645.000000 
-75.000000 -105.000000 495.000000 
-105.000000 -75.000000 495.000000 
-75.000000 -75.000000 495.000000 
-75.000000 -105.000000 525.000000 
-75.000000 -75.000000 525.000000 
-45.000000 -105.000000 495.000000 
-15.000000 -105.000000 495.000000 
-45.000000 -75.000000 495.000000 
-45.000000 -105.000000 525.000000 
-15.000000 -75.000000 495.000000 
-15.000000 -105.000000 525.000000 
-45.000000 -75.000000 525.000000 
-15.000000 -75.000000 525.000000 
-105.000000 -45.000000 495.000000 
-75.000000 -45.000000 495.000000 
-105.000000 -15.000000 495.000000 
-105.000000 -45.000000 525.000000 
-75.000000 -15.000000 495.000000 
-75.000000 -45.000000 525.000000 
-105.000000 -15.000000 525.000000 
-75.000000 -15.000000 525.000000 
-75.000000 -105.000000 555.000000 
-105.000000 -75.000000 555.000000 
-75.000000 -75.000000 555.000000 
-75.000000 -105.000000 585.000000 
-105.000000 -75.000000 585.000000 
-75.000000 -75.000000 585.000000 
-45.000000 -45.000000 495.000000 
-15.000000 -45.000000 495.000000 
-45.000000 -15.000000 495.000000 
-45.000000 -45.000000 525.000000 
-15.000000 -15.000000 495.000000 
-15.000000 -45.000000 525.000000 
-45.000000 -15.000000 525.000000 
-15.000000 -15.000000 525.000000 
-45.000000 -105.000000 555.000000 
-15.000000 -105.000000 555.000000 
-45.000000 -75.000000 555.000000 
-45.000000 -105.000000 585.000000 
-15.000000 -75.000000 555.000000 
-15.000000 -105.000000 585.000000 
-45.000000 -75.000000 585.000000 
-15.000000 -75.000000 585.000000 
-105.000000 -45.000000 555.000000 
-75.000000 -45.000000 555.000000 
-105.000000 -15.000000 555.000000 
-105.000000 -45.000000 585.000000 
-75.000000 -15.000000 555.000000 
-75.000000 -45.000000 585.000000 
-105.000000 -15.000000 585.000000 
-75.000000 -15.000000 585.000000 
-45.000000 -45.000000 555.000000 
-15.000000 -45.000000 555.000000 
-45.000000 -15.000000 555.000000 
-45.000000 -45.000000 585.000000 
-15.000000 -15.000000 555.000000 
-15.000000 -45.000000 585.000000 
-45.000000 -15.000000 585.000000 
-15.000000 -15.000000 585.000000 
-105.000000 -135.000000 615.000000 
-75.000000 -135.000000 615.000000 
-105.000000 -135.000000 645.000000 
-75.000000 -135.000000 645.000000 
-45.000000 -135.000000 615.000000 
-45.000000 -135.000000 645.000000 
-105.000000 -135.000000 675.000000 
-75.000000 -135.000000 675.000000 
-105.000000 -135.000000 705.000000 
-75.000000 -135.000000 705.000000 
-195.000000 -105.000000 615.000000 
-195.000000 -75.000000 615.000000 
-195.000000 -105.000000 645.000000 
-225.000000 -75.000000 645.000000 
-195.000000 -75.000000 645.000000 
-165.000000 -105.000000 615.000000 
-135.000000 -105.000000 615.000000 
-165.000000 -75.000000 615.000000 
-165.000000 -105.000000 645.000000 
-135.000000 -75.000000 615.000000 
-135.000000 -105.000000 645.000000 
-165.000000 -75.000000 645.000000 
-135.000000 -75.000000 645.000000 
-195.000000 -45.000000 615.000000 
-225.000000 -45.000000 645.000000 
-195.000000 -15.000000 615.000000 
-195.000000 -45.000000 645.000000 
-225.000000 -15.000000 645.000000 
-195.000000 -15.000000 645.000000 
-195.000000 -105.000000 675.000000 
-225.000000 -75.000000 675.000000 
-195.000000 -75.000000 675.000000 
-225.000000 -75.000000 705.000000 
-165.000000 -45.000000 615.000000 
-135.000000 -45.000000 615.000000 
-165.000000 -15.000000 615.000000 
-165.000000 -45.000000 645.000000 
-135.000000 -15.000000 615.000000 
-135.000000 -45.000000 645.000000 
-165.000000 -15.000000 645.000000 
-135.000000 -15.000000 645.000000 
-165.000000 -105.000000 675.000000 
-135.000000 -105.000000 675.000000 
-165.000000 -75.000000 675.000000 
-135.000000 -75.000000 675.000000 
-135.000000 -105.000000 705.000000 
-195.000000 -45.000000 675.000000 
-225.000000 -15.000000 675.000000 
-195.000000 -15.000000 675.000000 
-195.000000 -45.000000 705.000000 
-195.000000 -15.000000 705.000000 
-165.000000 -45.000000 675.000000 
-135.000000 -45.000000 675.000000 
-165.000000 -15.000000 675.000000 
-165.000000 -45.000000 705.000000 
-135.000000 -15.000000 675.000000 
-135.000000 -45.000000 705.000000 
-165.000000 -15.000000 705.000000 
-135.000000 -15.000000 705.000000 
-105.000000 -105.000000 615.000000 
-75.000000 -105.000000 615.000000 
-105.000000 -75.000000 615.000000 
-105.000000 -105.000000 645.000000 
-75.000000 -75.000000 615.000000 
-75.000000 -105.000000 645.000000 
-105.000000 -75.000000 645.000000 
-75.000000 -75.000000 645.000000 
-45.000000 -105.000000 615.000000 
-15.000000 -105.000000 615.000000 
-45.000000 -75.000000 615.000000 
-45.000000 -105.000000 645.000000 
-15.000000 -75.000000 615.000000 
-15.000000 -105.000000 645.000000 
-45.000000 -75.000000 645.000000 
-15.000000 -75.000000 645.000000 
-105.000000 -45.000000 615.000000 
-75.000000 -45.000000 615.000000 
-105.000000 -15.000000 615.000000 
-105.000000 -45.000000 645.000000 
-75.000000 -15.000000 615.000000 
-75.000000 -45.000000 645.000000 
-105.000000 -15.000000 645.000000 
-75.000000 -15.000000 645.000000 
-105.000000 -105.000000 675.000000 
-75.000000 -105.000000 675.000000 
-105.000000 -75.000000 675.000000 
-105.000000 -105.000000 705.000000 
-75.000000 -75.000000 675.000000 
-75.000000 -105.000000 705.000000 
-105.000000 -75.000000 705.000000 
-75.000000 -75.000000 705.000000 
-45.000000 -45.000000 615.000000 
-15.000000 -45.000000 615.000000 
-45.000000 -15.000000 615.000000 
-45.000000 -45.000000 645.000000 
-15.000000 -15.000000 615.000000 
-15.000000 -45.000000 645.000000 
-45.000000 -15.000000 645.000000 
-45.000000 -105.000000 675.000000 
-15.000000 -105.000000 675.000000 
-45.000000 -75.000000 675.000000 
-45.000000 -105.000000 705.000000 
-105.000000 -45.000000 675.000000 
-75.000000 -45.000000 675.000000 
-105.000000 -15.000000 675.000000 
-105.000000 -45.000000 705.000000 
-75.000000 -15.000000 675.000000 
-105.000000 -15.000000 705.000000 
-45.000000 -45.000000 675.000000 
-255.000000 -75.000000 735.000000 
-255.000000 -45.000000 735.000000 
-255.000000 -15.000000 735.000000 
-225.000000 -75.000000 735.000000 
-225.000000 -45.000000 735.000000 
-195.000000 -45.000000 735.000000 
-225.000000 -15.000000 735.000000 
-195.000000 -15.000000 735.000000 
-165.000000 -45.000000 735.000000 
-135.000000 -45.000000 735.000000 
-165.000000 -15.000000 735.000000 
-135.000000 -15.000000 735.000000 
15.000000 15.000000 -315.000000 
15.000000 45.000000 -315.000000 
15.000000 15.000000 -285.000000 
15.000000 45.000000 -285.000000 
45.000000 45.000000 -285.000000 
15.000000 75.000000 -285.000000 
45.000000 75.000000 -285.000000 
15.000000 105.000000 -285.000000 
45.000000 105.000000 -285.000000 
75.000000 105.000000 -285.000000 
45.000000 195.000000 -315.000000 
45.000000 225.000000 -315.000000 
15.000000 135.000000 -285.000000 
45.000000 135.000000 -285.000000 
15.000000 165.000000 -285.000000 
45.000000 165.000000 -285.000000 
75.000000 225.000000 -345.000000 
75.000000 195.000000 -315.000000 
75.000000 225.000000 -315.000000 
105.000000 225.000000 -315.000000 
75.000000 135.000000 -285.000000 
75.000000 165.000000 -285.000000 
45.000000 195.000000 -285.000000 
45.000000 225.000000 -285.000000 
75.000000 195.000000 -285.000000 
75.000000 225.000000 -285.000000 
75.000000 255.000000 -375.000000 
105.000000 255.000000 -375.000000 
75.000000 285.000000 -375.000000 
105.000000 285.000000 -375.000000 
75.000000 255.000000 -345.000000 
105.000000 255.000000 -345.000000 
75.000000 285.000000 -345.000000 
75.000000 255.000000 -315.000000 
105.000000 285.000000 -345.000000 
465.000000 -285.000000 135.000000 
435.000000 -285.000000 165.000000 
465.000000 -255.000000 135.000000 
465.000000 -285.000000 165.000000 
465.000000 -255.000000 165.000000 
405.000000 -285.000000 225.000000 
405.000000 -255.000000 225.000000 
435.000000 -285.000000 195.000000 
465.000000 -285.000000 195.000000 
435.000000 -255.000000 195.000000 
435.000000 -285.000000 225.000000 
465.000000 -255.000000 195.000000 
435.000000 -255.000000 225.000000 
15.000000 -45.000000 15.000000 
15.000000 -15.000000 15.000000 
15.000000 -45.000000 45.000000 
15.000000 -15.000000 45.000000 
15.000000 -75.000000 75.000000 
15.000000 -75.000000 105.000000 
45.000000 -75.000000 105.000000 
15.000000 -45.000000 75.000000 
45.000000 -45.000000 75.000000 
15.000000 -15.000000 75.000000 
15.000000 -45.000000 105.000000 
45.000000 -15.000000 75.000000 
45.000000 -45.000000 105.000000 
15.000000 -15.000000 105.000000 
45.000000 -15.000000 105.000000 
45.000000 -135.000000 165.000000 
75.000000 -135.000000 195.000000 
105.000000 -135.000000 195.000000 
105.000000 -165.000000 225.000000 
105.000000 -135.000000 225.000000 
135.000000 -165.000000 225.000000 
165.000000 -165.000000 225.000000 
135.000000 -135.000000 225.000000 
165.000000 -135.000000 225.000000 
195.000000 -135.000000 225.000000 
15.000000 -75.000000 135.000000 
15.000000 -105.000000 165.000000 
45.000000 -75.000000 135.000000 
45.000000 -105.000000 165.000000 
15.000000 -75.000000 165.000000 
45.000000 -75.000000 165.000000 
75.000000 -75.000000 135.000000 
75.000000 -105.000000 165.000000 
105.000000 -105.000000 165.000000 
75.000000 -75.000000 165.000000 
105.000000 -75.000000 165.000000 
15.000000 -45.000000 135.000000 
45.000000 -45.000000 135.000000 
15.000000 -15.000000 135.000000 
15.000000 -45.000000 165.000000 
45.000000 -15.000000 135.000000 
45.000000 -45.000000 165.000000 
15.000000 -15.000000 165.000000 
45.000000 -15.000000 165.000000 
75.000000 -45.000000 135.000000 
75.000000 -45.000000 165.000000 
105.000000 -45.000000 165.000000 
75.000000 -15.000000 165.000000 
75.000000 -105.000000 195.000000 
105.000000 -105.000000 195.000000 
75.000000 -75.000000 195.000000 
105.000000 -75.000000 195.000000 
105.000000 -105.000000 225.000000 
105.000000 -75.000000 225.000000 
15.000000 -45.000000 195.000000 
15.000000 -15.000000 195.000000 
15.000000 -45.000000 225.000000 
15.000000 -15.000000 225.000000 
105.000000 -45.000000 195.000000 
135.000000 -105.000000 195.000000 
135.000000 -75.000000 195.000000 
135.000000 -105.000000 225.000000 
165.000000 -105.000000 225.000000 
135.000000 -75.000000 225.000000 
165.000000 -75.000000 225.000000 
195.000000 -105.000000 225.000000 
405.000000 -225.000000 225.000000 
285.000000 -255.000000 255.000000 
285.000000 -255.000000 285.000000 
315.000000 -255.000000 255.000000 
345.000000 -255.000000 255.000000 
315.000000 -255.000000 285.000000 
345.000000 -255.000000 285.000000 
375.000000 -285.000000 255.000000 
405.000000 -285.000000 255.000000 
375.000000 -255.000000 255.000000 
405.000000 -255.000000 255.000000 
375.000000 -255.000000 285.000000 
435.000000 -285.000000 255.000000 
135.000000 -195.000000 255.000000 
165.000000 -195.000000 255.000000 
195.000000 -225.000000 255.000000 
225.000000 -225.000000 255.000000 
195.000000 -195.000000 255.000000 
195.000000 -225.000000 285.000000 
225.000000 -195.000000 255.000000 
225.000000 -225.000000 285.000000 
195.000000 -195.000000 285.000000 
225.000000 -195.000000 285.000000 
135.000000 -165.000000 255.000000 
165.000000 -165.000000 255.000000 
135.000000 -135.000000 255.000000 
165.000000 -135.000000 255.000000 
195.000000 -165.000000 255.000000 
225.000000 -165.000000 255.000000 
195.000000 -135.000000 255.000000 
195.000000 -165.000000 285.000000 
225.000000 -135.000000 255.000000 
225.000000 -165.000000 285.000000 
225.000000 -135.000000 285.000000 
15.000000 -75.000000 285.000000 
15.000000 -45.000000 255.000000 
15.000000 -15.000000 255.000000 
15.000000 -45.000000 285.000000 
15.000000 -15.000000 285.000000 
15.000000 -75.000000 315.000000 
15.000000 -75.000000 345.000000 
45.000000 -75.000000 345.000000 
15.000000 -45.000000 315.000000 
45.000000 -45.000000 315.000000 
15.000000 -15.000000 315.000000 
15.000000 -45.000000 345.000000 
45.000000 -15.000000 315.000000 
45.000000 -45.000000 345.000000 
15.000000 -15.000000 345.000000 
45.000000 -15.000000 345.000000 
75.000000 -45.000000 345.000000 
15.000000 -135.000000 435.000000 
45.000000 -135.000000 435.000000 
15.000000 -135.000000 465.000000 
45.000000 -135.000000 465.000000 
75.000000 -135.000000 435.000000 
75.000000 -135.000000 465.000000 
105.000000 -135.000000 465.000000 
135.000000 -105.000000 255.000000 
165.000000 -105.000000 255.000000 
135.000000 -75.000000 255.000000 
165.000000 -75.000000 255.000000 
195.000000 -105.000000 255.000000 
225.000000 -105.000000 255.000000 
45.000000 -105.000000 375.000000 
15.000000 -75.000000 375.000000 
15.000000 -105.000000 405.000000 
45.000000 -75.000000 375.000000 
45.000000 -105.000000 405.000000 
15.000000 -75.000000 405.000000 
45.000000 -75.000000 405.000000 
75.000000 -105.000000 375.000000 
75.000000 -75.000000 375.000000 
75.000000 -105.000000 405.000000 
75.000000 -75.000000 405.000000 
15.000000 -45.000000 375.000000 
45.000000 -45.000000 375.000000 
15.000000 -15.000000 375.000000 
15.000000 -45.000000 405.000000 
45.000000 -15.000000 375.000000 
45.000000 -45.000000 405.000000 
15.000000 -15.000000 405.000000 
45.000000 -15.000000 405.000000 
15.000000 -105.000000 435.000000 
45.000000 -105.000000 435.000000 
15.000000 -75.000000 435.000000 
15.000000 -105.000000 465.000000 
45.000000 -75.000000 435.000000 
45.000000 -105.000000 465.000000 
15.000000 -75.000000 465.000000 
45.000000 -75.000000 465.000000 
75.000000 -45.000000 375.000000 
75.000000 -45.000000 405.000000 
75.000000 -15.000000 405.000000 
75.000000 -105.000000 435.000000 
75.000000 -75.000000 435.000000 
75.000000 -105.000000 465.000000 
105.000000 -75.000000 435.000000 
105.000000 -105.000000 465.000000 
75.000000 -75.000000 465.000000 
105.000000 -75.000000 465.000000 
15.000000 -45.000000 435.000000 
45.000000 -45.000000 435.000000 
15.000000 -15.000000 435.000000 
15.000000 -45.000000 465.000000 
45.000000 -15.000000 435.000000 
45.000000 -45.000000 465.000000 
15.000000 -15.000000 465.000000 
45.000000 -15.000000 465.000000 
75.000000 -45.000000 435.000000 
105.000000 -45.000000 435.000000 
75.000000 -15.000000 435.000000 
75.000000 -45.000000 465.000000 
105.000000 -45.000000 465.000000 
75.000000 -15.000000 465.000000 
135.000000 -105.000000 465.000000 
135.000000 -75.000000 465.000000 
255.000000 -225.000000 255.000000 
285.000000 -225.000000 255.000000 
255.000000 -195.000000 255.000000 
255.000000 -225.000000 285.000000 
285.000000 -195.000000 255.000000 
285.000000 -225.000000 285.000000 
255.000000 -195.000000 285.000000 
285.000000 -195.000000 285.000000 
315.000000 -225.000000 255.000000 
345.000000 -225.000000 255.000000 
315.000000 -195.000000 255.000000 
315.000000 -225.000000 285.000000 
345.000000 -195.000000 255.000000 
345.000000 -225.000000 285.000000 
315.000000 -195.000000 285.000000 
345.000000 -195.000000 285.000000 
255.000000 -165.000000 255.000000 
285.000000 -165.000000 255.000000 
255.000000 -135.000000 255.000000 
255.000000 -165.000000 285.000000 
285.000000 -135.000000 255.000000 
285.000000 -165.000000 285.000000 
255.000000 -135.000000 285.000000 
285.000000 -135.000000 285.000000 
315.000000 -165.000000 255.000000 
345.000000 -165.000000 255.000000 
315.000000 -135.000000 255.000000 
315.000000 -165.000000 285.000000 
345.000000 -165.000000 285.000000 
315.000000 -135.000000 285.000000 
375.000000 -225.000000 255.000000 
405.000000 -225.000000 255.000000 
375.000000 -195.000000 255.000000 
375.000000 -225.000000 285.000000 
375.000000 -195.000000 285.000000 
255.000000 -105.000000 255.000000 
285.000000 -105.000000 255.000000 
315.000000 -105.000000 255.000000 
495.000000 -315.000000 75.000000 
495.000000 -315.000000 105.000000 
495.000000 -285.000000 75.000000 
495.000000 -285.000000 105.000000 
495.000000 -315.000000 135.000000 
495.000000 -285.000000 135.000000 
495.000000 -285.000000 165.000000 
525.000000 -315.000000 465.000000 
465.000000 -315.000000 555.000000 
435.000000 -315.000000 585.000000 
405.000000 -285.000000 585.000000 
405.000000 -255.000000 585.000000 
465.000000 -285.000000 555.000000 
435.000000 -285.000000 585.000000 
465.000000 -255.000000 555.000000 
465.000000 -285.000000 585.000000 
435.000000 -255.000000 585.000000 
465.000000 -255.000000 585.000000 
255.000000 -255.000000 615.000000 
285.000000 -255.000000 615.000000 
255.000000 -255.000000 645.000000 
285.000000 -255.000000 645.000000 
315.000000 -285.000000 615.000000 
345.000000 -285.000000 615.000000 
315.000000 -255.000000 615.000000 
315.000000 -285.000000 645.000000 
345.000000 -255.000000 615.000000 
345.000000 -285.000000 645.000000 
315.000000 -255.000000 645.000000 
345.000000 -255.000000 645.000000 
285.000000 -255.000000 675.000000 
345.000000 -285.000000 675.000000 
315.000000 -255.000000 675.000000 
345.000000 -255.000000 675.000000 
345.000000 -255.000000 705.000000 
375.000000 -285.000000 615.000000 
405.000000 -285.000000 615.000000 
375.000000 -255.000000 615.000000 
375.000000 -285.000000 645.000000 
405.000000 -255.000000 615.000000 
405.000000 -285.000000 645.000000 
375.000000 -255.000000 645.000000 
405.000000 -255.000000 645.000000 
435.000000 -285.000000 615.000000 
435.000000 -255.000000 615.000000 
465.000000 -255.000000 615.000000 
375.000000 -255.000000 675.000000 
405.000000 -255.000000 675.000000 
375.000000 -255.000000 705.000000 
45.000000 -165.000000 495.000000 
15.000000 -135.000000 495.000000 
45.000000 -135.000000 495.000000 
15.000000 -135.000000 525.000000 
75.000000 -165.000000 495.000000 
75.000000 -135.000000 495.000000 
75.000000 -165.000000 525.000000 
105.000000 -135.000000 495.000000 
105.000000 -165.000000 525.000000 
75.000000 -135.000000 525.000000 
105.000000 -135.000000 525.000000 
105.000000 -195.000000 585.000000 
15.000000 -135.000000 555.000000 
75.000000 -165.000000 555.000000 
105.000000 -165.000000 555.000000 
75.000000 -135.000000 555.000000 
75.000000 -165.000000 585.000000 
105.000000 -135.000000 555.000000 
105.000000 -165.000000 585.000000 
75.000000 -135.000000 585.000000 
105.000000 -135.000000 585.000000 
135.000000 -135.000000 495.000000 
135.000000 -165.000000 525.000000 
165.000000 -165.000000 525.000000 
135.000000 -135.000000 525.000000 
165.000000 -135.000000 525.000000 
165.000000 -195.000000 555.000000 
165.000000 -225.000000 585.000000 
135.000000 -195.000000 585.000000 
165.000000 -195.000000 585.000000 
195.000000 -195.000000 555.000000 
195.000000 -225.000000 585.000000 
225.000000 -195.000000 555.000000 
195.000000 -195.000000 585.000000 
225.000000 -195.000000 585.000000 
135.000000 -165.000000 555.000000 
165.000000 -165.000000 555.000000 
135.000000 -135.000000 555.000000 
135.000000 -165.000000 585.000000 
165.000000 -135.000000 555.000000 
165.000000 -165.000000 585.000000 
135.000000 -135.000000 585.000000 
165.000000 -135.000000 585.000000 
195.000000 -165.000000 555.000000 
225.000000 -165.000000 555.000000 
195.000000 -135.000000 555.000000 
195.000000 -165.000000 585.000000 
225.000000 -165.000000 585.000000 
195.000000 -135.000000 585.000000 
225.000000 -135.000000 585.000000 
15.000000 -105.000000 495.000000 
45.000000 -105.000000 495.000000 
15.000000 -75.000000 495.000000 
15.000000 -105.000000 525.000000 
45.000000 -75.000000 495.000000 
45.000000 -105.000000 525.000000 
15.000000 -75.000000 525.000000 
45.000000 -75.000000 525.000000 
75.000000 -105.000000 495.000000 
105.000000 -105.000000 495.000000 
75.000000 -75.000000 495.000000 
75.000000 -105.000000 525.000000 
105.000000 -75.000000 495.000000 
105.000000 -105.000000 525.000000 
75.000000 -75.000000 525.000000 
105.000000 -75.000000 525.000000 
15.000000 -45.000000 495.000000 
45.000000 -45.000000 495.000000 
15.000000 -15.000000 495.000000 
15.000000 -45.000000 525.000000 
45.000000 -15.000000 495.000000 
45.000000 -45.000000 525.000000 
15.000000 -15.000000 525.000000 
45.000000 -15.000000 525.000000 
15.000000 -105.000000 555.000000 
15.000000 -75.000000 555.000000 
15.000000 -75.000000 585.000000 
75.000000 -45.000000 495.000000 
105.000000 -45.000000 495.000000 
75.000000 -15.000000 495.000000 
75.000000 -45.000000 525.000000 
105.000000 -15.000000 495.000000 
105.000000 -45.000000 525.000000 
75.000000 -15.000000 525.000000 
105.000000 -15.000000 525.000000 
75.000000 -105.000000 555.000000 
105.000000 -105.000000 555.000000 
75.000000 -75.000000 555.000000 
75.000000 -105.000000 585.000000 
105.000000 -75.000000 555.000000 
105.000000 -105.000000 585.000000 
75.000000 -75.000000 585.000000 
105.000000 -75.000000 585.000000 
15.000000 -45.000000 555.000000 
45.000000 -45.000000 555.000000 
15.000000 -15.000000 555.000000 
15.000000 -45.000000 585.000000 
45.000000 -15.000000 555.000000 
75.000000 -45.000000 555.000000 
105.000000 -45.000000 555.000000 
75.000000 -15.000000 555.000000 
105.000000 -15.000000 555.000000 
105.000000 -45.000000 585.000000 
105.000000 -15.000000 585.000000 
105.000000 -135.000000 615.000000 
135.000000 -105.000000 495.000000 
165.000000 -105.000000 495.000000 
135.000000 -75.000000 495.000000 
135.000000 -105.000000 525.000000 
165.000000 -75.000000 495.000000 
165.000000 -105.000000 525.000000 
135.000000 -75.000000 525.000000 
165.000000 -75.000000 525.000000 
135.000000 -45.000000 495.000000 
135.000000 -45.000000 525.000000 
135.000000 -105.000000 555.000000 
165.000000 -105.000000 555.000000 
135.000000 -75.000000 555.000000 
135.000000 -105.000000 585.000000 
165.000000 -75.000000 555.000000 
165.000000 -105.000000 585.000000 
135.000000 -75.000000 585.000000 
165.000000 -75.000000 585.000000 
195.000000 -105.000000 555.000000 
195.000000 -105.000000 585.000000 
225.000000 -105.000000 585.000000 
195.000000 -75.000000 585.000000 
225.000000 -75.000000 585.000000 
135.000000 -45.000000 555.000000 
165.000000 -45.000000 555.000000 
135.000000 -15.000000 555.000000 
135.000000 -45.000000 585.000000 
165.000000 -45.000000 585.000000 
135.000000 -15.000000 585.000000 
165.000000 -15.000000 585.000000 
195.000000 -15.000000 555.000000 
195.000000 -45.000000 585.000000 
225.000000 -45.000000 585.000000 
195.000000 -15.000000 585.000000 
135.000000 -195.000000 615.000000 
165.000000 -195.000000 615.000000 
195.000000 -225.000000 615.000000 
225.000000 -225.000000 615.000000 
195.000000 -195.000000 615.000000 
225.000000 -195.000000 615.000000 
225.000000 -225.000000 645.000000 
195.000000 -195.000000 645.000000 
225.000000 -195.000000 645.000000 
135.000000 -165.000000 615.000000 
165.000000 -165.000000 615.000000 
135.000000 -135.000000 615.000000 
165.000000 -135.000000 615.000000 
165.000000 -135.000000 645.000000 
195.000000 -165.000000 615.000000 
225.000000 -165.000000 615.000000 
195.000000 -135.000000 615.000000 
195.000000 -165.000000 645.000000 
225.000000 -135.000000 615.000000 
225.000000 -165.000000 645.000000 
195.000000 -135.000000 645.000000 
225.000000 -135.000000 645.000000 
225.000000 -165.000000 675.000000 
195.000000 -135.000000 675.000000 
225.000000 -135.000000 675.000000 
105.000000 -105.000000 615.000000 
105.000000 -75.000000 615.000000 
135.000000 -105.000000 615.000000 
165.000000 -105.000000 615.000000 
135.000000 -75.000000 615.000000 
165.000000 -75.000000 615.000000 
165.000000 -105.000000 645.000000 
165.000000 -75.000000 645.000000 
195.000000 -105.000000 615.000000 
225.000000 -105.000000 615.000000 
195.000000 -75.000000 615.000000 
195.000000 -105.000000 645.000000 
225.000000 -75.000000 615.000000 
225.000000 -105.000000 645.000000 
195.000000 -75.000000 645.000000 
225.000000 -75.000000 645.000000 
165.000000 -45.000000 615.000000 
195.000000 -45.000000 615.000000 
225.000000 -45.000000 615.000000 
195.000000 -15.000000 615.000000 
195.000000 -45.000000 645.000000 
225.000000 -15.000000 615.000000 
225.000000 -45.000000 645.000000 
225.000000 -105.000000 675.000000 
225.000000 -75.000000 675.000000 
255.000000 -195.000000 585.000000 
255.000000 -165.000000 585.000000 
255.000000 -135.000000 585.000000 
285.000000 -135.000000 585.000000 
435.000000 -225.000000 585.000000 
255.000000 -105.000000 585.000000 
285.000000 -105.000000 585.000000 
255.000000 -225.000000 615.000000 
285.000000 -225.000000 615.000000 
255.000000 -195.000000 615.000000 
255.000000 -225.000000 645.000000 
285.000000 -195.000000 615.000000 
285.000000 -225.000000 645.000000 
255.000000 -195.000000 645.000000 
285.000000 -195.000000 645.000000 
315.000000 -225.000000 615.000000 
345.000000 -225.000000 615.000000 
315.000000 -195.000000 615.000000 
315.000000 -225.000000 645.000000 
345.000000 -195.000000 615.000000 
345.000000 -225.000000 645.000000 
315.000000 -195.000000 645.000000 
345.000000 -195.000000 645.000000 
255.000000 -165.000000 615.000000 
285.000000 -165.000000 615.000000 
255.000000 -135.000000 615.000000 
255.000000 -165.000000 645.000000 
285.000000 -135.000000 615.000000 
285.000000 -165.000000 645.000000 
255.000000 -135.000000 645.000000 
285.000000 -135.000000 645.000000 
255.000000 -225.000000 675.000000 
285.000000 -225.000000 675.000000 
255.000000 -195.000000 675.000000 
285.000000 -195.000000 675.000000 
285.000000 -225.000000 705.000000 
255.000000 -195.000000 705.000000 
285.000000 -195.000000 705.000000 
315.000000 -165.000000 615.000000 
345.000000 -165.000000 615.000000 
315.000000 -135.000000 615.000000 
315.000000 -165.000000 645.000000 
345.000000 -135.000000 615.000000 
345.000000 -165.000000 645.000000 
315.000000 -135.000000 645.000000 
345.000000 -135.000000 645.000000 
315.000000 -225.000000 675.000000 
345.000000 -225.000000 675.000000 
315.000000 -195.000000 675.000000 
315.000000 -225.000000 705.000000 
345.000000 -195.000000 675.000000 
345.000000 -225.000000 705.000000 
315.000000 -195.000000 705.000000 
345.000000 -195.000000 705.000000 
255.000000 -165.000000 675.000000 
285.000000 -165.000000 675.000000 
255.000000 -135.000000 675.000000 
255.000000 -165.000000 705.000000 
285.000000 -135.000000 675.000000 
285.000000 -165.000000 705.000000 
315.000000 -165.000000 675.000000 
345.000000 -165.000000 675.000000 
315.000000 -135.000000 675.000000 
315.000000 -165.000000 705.000000 
345.000000 -165.000000 705.000000 
375.000000 -225.000000 615.000000 
405.000000 -225.000000 615.000000 
375.000000 -195.000000 615.000000 
375.000000 -225.000000 645.000000 
405.000000 -195.000000 615.000000 
405.000000 -225.000000 645.000000 
375.000000 -195.000000 645.000000 
435.000000 -225.000000 615.000000 
435.000000 -195.000000 615.000000 
375.000000 -165.000000 615.000000 
405.000000 -165.000000 615.000000 
375.000000 -135.000000 615.000000 
375.000000 -165.000000 645.000000 
375.000000 -135.000000 645.000000 
375.000000 -225.000000 675.000000 
255.000000 -105.000000 615.000000 
285.000000 -105.000000 615.000000 
255.000000 -75.000000 615.000000 
255.000000 -105.000000 645.000000 
285.000000 -75.000000 615.000000 
285.000000 -105.000000 645.000000 
255.000000 -75.000000 645.000000 
315.000000 -105.000000 615.000000 
345.000000 -105.000000 615.000000 
315.000000 -75.000000 615.000000 
315.000000 -105.000000 645.000000 
345.000000 -105.000000 645.000000 
255.000000 -45.000000 615.000000 
285.000000 -45.000000 615.000000 
255.000000 -45.000000 645.000000 
255.000000 -15.000000 645.000000 
255.000000 -105.000000 675.000000 
285.000000 -105.000000 675.000000 
525.000000 -315.000000 495.000000 
525.000000 -315.000000 525.000000 
495.000000 -285.000000 525.000000 
495.000000 -315.000000 555.000000 
525.000000 -315.000000 555.000000 
495.000000 -285.000000 555.000000 
495.000000 -285.000000 585.000000 
-585.000000 225.000000 225.000000 
-555.000000 225.000000 225.000000 
-585.000000 225.000000 255.000000 
-555.000000 225.000000 255.000000 
-555.000000 225.000000 285.000000 
-555.000000 195.000000 315.000000 
-555.000000 225.000000 315.000000 
-555.000000 195.000000 345.000000 
-555.000000 225.000000 345.000000 
-525.000000 195.000000 345.000000 
-525.000000 225.000000 345.000000 
-525.000000 165.000000 375.000000 
-495.000000 165.000000 375.000000 
-525.000000 165.000000 405.000000 
-495.000000 165.000000 405.000000 
-555.000000 195.000000 375.000000 
-555.000000 225.000000 375.000000 
-525.000000 195.000000 375.000000 
-495.000000 195.000000 375.000000 
-525.000000 225.000000 375.000000 
-525.000000 195.000000 405.000000 
-495.000000 225.000000 375.000000 
-495.000000 195.000000 405.000000 
-525.000000 225.000000 405.000000 
-495.000000 225.000000 405.000000 
-495.000000 135.000000 435.000000 
-525.000000 165.000000 435.000000 
-495.000000 165.000000 435.000000 
-525.000000 195.000000 435.000000 
-495.000000 195.000000 435.000000 
-525.000000 255.000000 465.000000 
-495.000000 255.000000 465.000000 
-375.000000 75.000000 45.000000 
-405.000000 105.000000 45.000000 
-375.000000 105.000000 45.000000 
-375.000000 105.000000 75.000000 
-315.000000 15.000000 45.000000 
-345.000000 45.000000 45.000000 
-315.000000 45.000000 45.000000 
-285.000000 15.000000 45.000000 
-255.000000 15.000000 45.000000 
-285.000000 45.000000 45.000000 
-255.000000 45.000000 45.000000 
-345.000000 75.000000 45.000000 
-315.000000 75.000000 45.000000 
-345.000000 105.000000 45.000000 
-315.000000 105.000000 45.000000 
-285.000000 75.000000 45.000000 
-255.000000 75.000000 45.000000 
-285.000000 105.000000 45.000000 
-255.000000 105.000000 45.000000 
-345.000000 75.000000 75.000000 
-315.000000 75.000000 75.000000 
-345.000000 105.000000 75.000000 
-315.000000 105.000000 75.000000 
-285.000000 75.000000 75.000000 
-255.000000 75.000000 75.000000 
-285.000000 105.000000 75.000000 
-255.000000 105.000000 75.000000 
-435.000000 135.000000 15.000000 
-465.000000 165.000000 15.000000 
-435.000000 165.000000 15.000000 
-435.000000 165.000000 45.000000 
-405.000000 135.000000 15.000000 
-405.000000 165.000000 15.000000 
-405.000000 135.000000 45.000000 
-375.000000 135.000000 45.000000 
-405.000000 165.000000 45.000000 
-375.000000 165.000000 45.000000 
-435.000000 195.000000 15.000000 
-345.000000 135.000000 45.000000 
-315.000000 135.000000 45.000000 
-345.000000 165.000000 45.000000 
-285.000000 135.000000 45.000000 
-345.000000 135.000000 75.000000 
-315.000000 135.000000 75.000000 
-285.000000 135.000000 75.000000 
-225.000000 15.000000 45.000000 
-195.000000 15.000000 45.000000 
-225.000000 45.000000 45.000000 
-195.000000 45.000000 45.000000 
-165.000000 15.000000 15.000000 
-135.000000 15.000000 15.000000 
-165.000000 45.000000 15.000000 
-165.000000 15.000000 45.000000 
-135.000000 45.000000 15.000000 
-165.000000 45.000000 45.000000 
-135.000000 45.000000 45.000000 
-225.000000 75.000000 45.000000 
-195.000000 75.000000 45.000000 
-225.000000 105.000000 45.000000 
-195.000000 105.000000 45.000000 
-225.000000 45.000000 75.000000 
-165.000000 75.000000 15.000000 
-135.000000 75.000000 15.000000 
-165.000000 75.000000 45.000000 
-225.000000 75.000000 75.000000 
-225.000000 105.000000 75.000000 
-195.000000 105.000000 75.000000 
-105.000000 15.000000 15.000000 
-105.000000 45.000000 15.000000 
-15.000000 15.000000 165.000000 
-45.000000 15.000000 195.000000 
-15.000000 15.000000 195.000000 
-45.000000 15.000000 225.000000 
-15.000000 15.000000 225.000000 
-405.000000 45.000000 435.000000 
-375.000000 45.000000 435.000000 
-435.000000 75.000000 435.000000 
-465.000000 105.000000 435.000000 
-435.000000 105.000000 435.000000 
-435.000000 105.000000 465.000000 
-405.000000 75.000000 435.000000 
-375.000000 75.000000 435.000000 
-405.000000 105.000000 435.000000 
-405.000000 75.000000 465.000000 
-375.000000 105.000000 435.000000 
-375.000000 75.000000 465.000000 
-405.000000 105.000000 465.000000 
-375.000000 105.000000 465.000000 
-255.000000 15.000000 405.000000 
-255.000000 45.000000 405.000000 
-315.000000 15.000000 435.000000 
-345.000000 45.000000 435.000000 
-345.000000 15.000000 465.000000 
-315.000000 45.000000 435.000000 
-315.000000 15.000000 465.000000 
-345.000000 45.000000 465.000000 
-315.000000 45.000000 465.000000 
-255.000000 75.000000 405.000000 
-255.000000 105.000000 405.000000 
-255.000000 15.000000 435.000000 
-285.000000 45.000000 435.000000 
-255.000000 45.000000 435.000000 
-285.000000 45.000000 465.000000 
-345.000000 75.000000 435.000000 
-315.000000 75.000000 435.000000 
-345.000000 105.000000 435.000000 
-345.000000 75.000000 465.000000 
-315.000000 105.000000 435.000000 
-315.000000 75.000000 465.000000 
-345.000000 105.000000 465.000000 
-315.000000 105.000000 465.000000 
-285.000000 75.000000 435.000000 
-255.000000 75.000000 435.000000 
-285.000000 105.000000 435.000000 
-285.000000 75.000000 465.000000 
-255.000000 105.000000 435.000000 
-255.000000 75.000000 465.000000 
-285.000000 105.000000 465.000000 
-255.000000 105.000000 465.000000 
-465.000000 135.000000 435.000000 
-435.000000 135.000000 435.000000 
-465.000000 165.000000 435.000000 
-465.000000 135.000000 465.000000 
-435.000000 165.000000 435.000000 
-435.000000 135.000000 465.000000 
-465.000000 165.000000 465.000000 
-435.000000 165.000000 465.000000 
-405.000000 135.000000 435.000000 
-375.000000 135.000000 435.000000 
-405.000000 165.000000 435.000000 
-405.000000 135.000000 465.000000 
-375.000000 165.000000 435.000000 
-375.000000 135.000000 465.000000 
-405.000000 165.000000 465.000000 
-375.000000 165.000000 465.000000 
-465.000000 195.000000 435.000000 
-435.000000 195.000000 435.000000 
-465.000000 225.000000 435.000000 
-465.000000 195.000000 465.000000 
-435.000000 225.000000 435.000000 
-435.000000 195.000000 465.000000 
-405.000000 195.000000 435.000000 
-375.000000 195.000000 435.000000 
-405.000000 195.000000 465.000000 
-375.000000 195.000000 465.000000 
-345.000000 135.000000 435.000000 
-315.000000 135.000000 435.000000 
-345.000000 165.000000 435.000000 
-345.000000 135.000000 465.000000 
-315.000000 165.000000 435.000000 
-315.000000 135.000000 465.000000 
-345.000000 165.000000 465.000000 
-315.000000 165.000000 465.000000 
-285.000000 135.000000 435.000000 
-255.000000 135.000000 435.000000 
-285.000000 165.000000 435.000000 
-285.000000 135.000000 465.000000 
-255.000000 135.000000 465.000000 
-285.000000 165.000000 465.000000 
-255.000000 165.000000 465.000000 
-345.000000 195.000000 435.000000 
-345.000000 195.000000 465.000000 
-315.000000 195.000000 465.000000 
-135.000000 15.000000 315.000000 
-165.000000 15.000000 345.000000 
-135.000000 15.000000 345.000000 
-165.000000 45.000000 345.000000 
-135.000000 45.000000 345.000000 
-165.000000 75.000000 345.000000 
-135.000000 75.000000 345.000000 
-75.000000 15.000000 255.000000 
-105.000000 15.000000 285.000000 
-75.000000 15.000000 285.000000 
-105.000000 45.000000 285.000000 
-75.000000 45.000000 285.000000 
-45.000000 15.000000 255.000000 
-15.000000 15.000000 255.000000 
-45.000000 15.000000 285.000000 
-15.000000 15.000000 285.000000 
-45.000000 45.000000 285.000000 
-105.000000 15.000000 315.000000 
-75.000000 15.000000 315.000000 
-105.000000 45.000000 315.000000 
-105.000000 15.000000 345.000000 
-75.000000 45.000000 315.000000 
-105.000000 45.000000 345.000000 
-15.000000 15.000000 315.000000 
-45.000000 45.000000 315.000000 
-15.000000 15.000000 345.000000 
-105.000000 75.000000 345.000000 
-195.000000 15.000000 375.000000 
-225.000000 15.000000 405.000000 
-195.000000 45.000000 375.000000 
-195.000000 15.000000 405.000000 
-225.000000 45.000000 405.000000 
-195.000000 45.000000 405.000000 
-165.000000 15.000000 375.000000 
-135.000000 15.000000 375.000000 
-165.000000 45.000000 375.000000 
-165.000000 15.000000 405.000000 
-135.000000 45.000000 375.000000 
-165.000000 45.000000 405.000000 
-195.000000 75.000000 375.000000 
-225.000000 75.000000 405.000000 
-195.000000 75.000000 405.000000 
-225.000000 105.000000 405.000000 
-195.000000 105.000000 405.000000 
-225.000000 45.000000 435.000000 
-165.000000 75.000000 375.000000 
-135.000000 75.000000 375.000000 
-165.000000 105.000000 375.000000 
-165.000000 75.000000 405.000000 
-165.000000 105.000000 405.000000 
-225.000000 75.000000 435.000000 
-195.000000 75.000000 435.000000 
-225.000000 105.000000 435.000000 
-75.000000 15.000000 405.000000 
-45.000000 15.000000 375.000000 
-15.000000 15.000000 375.000000 
-45.000000 15.000000 405.000000 
-15.000000 15.000000 405.000000 
-15.000000 45.000000 405.000000 
-75.000000 15.000000 435.000000 
-105.000000 15.000000 465.000000 
-75.000000 45.000000 435.000000 
-75.000000 15.000000 465.000000 
-105.000000 45.000000 465.000000 
-75.000000 45.000000 465.000000 
-45.000000 15.000000 435.000000 
-15.000000 15.000000 435.000000 
-45.000000 45.000000 435.000000 
-45.000000 15.000000 465.000000 
-15.000000 45.000000 435.000000 
-15.000000 15.000000 465.000000 
-45.000000 45.000000 465.000000 
-15.000000 45.000000 465.000000 
-15.000000 75.000000 435.000000 
-45.000000 75.000000 465.000000 
-15.000000 75.000000 465.000000 
-225.000000 135.000000 435.000000 
-375.000000 45.000000 675.000000 
-375.000000 75.000000 675.000000 
-405.000000 105.000000 675.000000 
-375.000000 105.000000 675.000000 
-255.000000 15.000000 645.000000 
-255.000000 45.000000 645.000000 
-345.000000 45.000000 675.000000 
-255.000000 75.000000 645.000000 
-345.000000 75.000000 675.000000 
-315.000000 75.000000 675.000000 
-345.000000 105.000000 675.000000 
-315.000000 105.000000 675.000000 
-285.000000 75.000000 675.000000 
-255.000000 75.000000 675.000000 
-285.000000 105.000000 675.000000 
-255.000000 105.000000 675.000000 
-465.000000 195.000000 645.000000 
-435.000000 225.000000 645.000000 
-405.000000 195.000000 645.000000 
-405.000000 225.000000 645.000000 
-375.000000 225.000000 645.000000 
-375.000000 135.000000 675.000000 
-405.000000 165.000000 675.000000 
-375.000000 165.000000 675.000000 
-435.000000 195.000000 675.000000 
-405.000000 195.000000 675.000000 
-375.000000 195.000000 675.000000 
-405.000000 225.000000 675.000000 
-375.000000 225.000000 675.000000 
-375.000000 195.000000 705.000000 
-375.000000 225.000000 705.000000 
-345.000000 225.000000 645.000000 
-345.000000 135.000000 675.000000 
-315.000000 135.000000 675.000000 
-345.000000 165.000000 675.000000 
-315.000000 165.000000 675.000000 
-345.000000 165.000000 705.000000 
-315.000000 165.000000 705.000000 
-285.000000 135.000000 675.000000 
-255.000000 135.000000 675.000000 
-285.000000 165.000000 675.000000 
-285.000000 135.000000 705.000000 
-255.000000 165.000000 675.000000 
-285.000000 165.000000 705.000000 
-255.000000 165.000000 705.000000 
-345.000000 195.000000 675.000000 
-315.000000 195.000000 675.000000 
-345.000000 225.000000 675.000000 
-345.000000 195.000000 705.000000 
-315.000000 225.000000 675.000000 
-315.000000 195.000000 705.000000 
-345.000000 225.000000 705.000000 
-315.000000 225.000000 705.000000 
-285.000000 195.000000 675.000000 
-255.000000 195.000000 675.000000 
-285.000000 225.000000 675.000000 
-285.000000 195.000000 705.000000 
-135.000000 15.000000 525.000000 
-135.000000 45.000000 525.000000 
-195.000000 15.000000 585.000000 
-195.000000 45.000000 585.000000 
-165.000000 15.000000 555.000000 
-135.000000 15.000000 555.000000 
-165.000000 15.000000 585.000000 
-135.000000 45.000000 555.000000 
-135.000000 15.000000 585.000000 
-165.000000 45.000000 585.000000 
-135.000000 45.000000 585.000000 
-195.000000 75.000000 585.000000 
-165.000000 75.000000 585.000000 
-135.000000 75.000000 585.000000 
-165.000000 105.000000 585.000000 
-135.000000 105.000000 585.000000 
-105.000000 15.000000 495.000000 
-75.000000 15.000000 495.000000 
-105.000000 45.000000 495.000000 
-105.000000 15.000000 525.000000 
-75.000000 45.000000 495.000000 
-75.000000 15.000000 525.000000 
-105.000000 45.000000 525.000000 
-75.000000 45.000000 525.000000 
-45.000000 15.000000 495.000000 
-15.000000 15.000000 495.000000 
-45.000000 45.000000 495.000000 
-45.000000 15.000000 525.000000 
-15.000000 45.000000 495.000000 
-15.000000 15.000000 525.000000 
-45.000000 45.000000 525.000000 
-15.000000 45.000000 525.000000 
-105.000000 75.000000 495.000000 
-75.000000 75.000000 495.000000 
-105.000000 75.000000 525.000000 
-75.000000 75.000000 525.000000 
-105.000000 15.000000 555.000000 
-75.000000 15.000000 555.000000 
-105.000000 45.000000 555.000000 
-105.000000 15.000000 585.000000 
-75.000000 45.000000 555.000000 
-75.000000 15.000000 585.000000 
-105.000000 45.000000 585.000000 
-75.000000 45.000000 585.000000 
-45.000000 75.000000 495.000000 
-15.000000 75.000000 495.000000 
-45.000000 75.000000 525.000000 
-45.000000 15.000000 555.000000 
-15.000000 15.000000 555.000000 
-45.000000 45.000000 555.000000 
-45.000000 15.000000 585.000000 
-15.000000 45.000000 555.000000 
-15.000000 15.000000 585.000000 
-45.000000 45.000000 585.000000 
-15.000000 45.000000 585.000000 
-105.000000 75.000000 555.000000 
-75.000000 75.000000 555.000000 
-105.000000 75.000000 585.000000 
-75.000000 75.000000 585.000000 
-105.000000 105.000000 585.000000 
-75.000000 105.000000 585.000000 
-45.000000 75.000000 555.000000 
-45.000000 75.000000 585.000000 
-15.000000 75.000000 585.000000 
-225.000000 15.000000 615.000000 
-195.000000 15.000000 615.000000 
-225.000000 45.000000 615.000000 
-225.000000 15.000000 645.000000 
-195.000000 45.000000 615.000000 
-195.000000 15.000000 645.000000 
-225.000000 45.000000 645.000000 
-165.000000 15.000000 615.000000 
-135.000000 15.000000 615.000000 
-165.000000 45.000000 615.000000 
-165.000000 15.000000 645.000000 
-135.000000 45.000000 615.000000 
-135.000000 15.000000 645.000000 
-165.000000 45.000000 645.000000 
-135.000000 45.000000 645.000000 
-225.000000 75.000000 615.000000 
-195.000000 75.000000 615.000000 
-225.000000 75.000000 645.000000 
-195.000000 105.000000 615.000000 
-195.000000 75.000000 645.000000 
-225.000000 105.000000 645.000000 
-195.000000 105.000000 645.000000 
-195.000000 15.000000 675.000000 
-195.000000 15.000000 705.000000 
-165.000000 75.000000 615.000000 
-135.000000 75.000000 615.000000 
-165.000000 105.000000 615.000000 
-165.000000 75.000000 645.000000 
-135.000000 105.000000 615.000000 
-135.000000 75.000000 645.000000 
-165.000000 105.000000 645.000000 
-135.000000 105.000000 645.000000 
-165.000000 15.000000 675.000000 
-135.000000 15.000000 675.000000 
-165.000000 15.000000 705.000000 
-135.000000 15.000000 705.000000 
-225.000000 75.000000 675.000000 
-195.000000 75.000000 675.000000 
-225.000000 105.000000 675.000000 
-195.000000 105.000000 675.000000 
-135.000000 75.000000 675.000000 
-165.000000 105.000000 675.000000 
-105.000000 15.000000 615.000000 
-75.000000 15.000000 615.000000 
-105.000000 45.000000 615.000000 
-105.000000 15.000000 645.000000 
-75.000000 45.000000 615.000000 
-75.000000 15.000000 645.000000 
-105.000000 45.000000 645.000000 
-75.000000 45.000000 645.000000 
-45.000000 15.000000 615.000000 
-45.000000 45.000000 615.000000 
-105.000000 75.000000 615.000000 
-75.000000 75.000000 615.000000 
-105.000000 105.000000 615.000000 
-105.000000 75.000000 645.000000 
-105.000000 15.000000 675.000000 
-225.000000 135.000000 645.000000 
-195.000000 135.000000 645.000000 
-165.000000 135.000000 615.000000 
-135.000000 135.000000 615.000000 
-165.000000 135.000000 645.000000 
-225.000000 135.000000 675.000000 
-195.000000 135.000000 675.000000 
-225.000000 165.000000 675.000000 
-195.000000 165.000000 675.000000 
-165.000000 135.000000 675.000000 
