11.000000 -33.000000 -121.000000 
11.000000 -11.000000 -121.000000 
11.000000 -33.000000 -99.000000 
11.000000 -11.000000 -99.000000 
99.000000 -77.000000 -165.000000 
99.000000 -55.000000 -165.000000 
99.000000 -77.000000 -143.000000 
121.000000 -77.000000 -143.000000 
99.000000 -55.000000 -143.000000 
121.000000 -55.000000 -143.000000 
143.000000 -77.000000 -143.000000 
143.000000 -55.000000 -143.000000 
99.000000 -33.000000 -143.000000 
99.000000 -77.000000 -121.000000 
121.000000 -77.000000 -121.000000 
121.000000 -55.000000 -121.000000 
143.000000 -77.000000 -121.000000 
165.000000 -77.000000 -121.000000 
143.000000 -55.000000 -121.000000 
165.000000 -55.000000 -121.000000 
11.000000 -33.000000 -77.000000 
11.000000 -11.000000 -77.000000 
11.000000 -33.000000 -55.000000 
11.000000 -11.000000 -55.000000 
187.000000 -143.000000 -121.000000 
209.000000 -143.000000 -121.000000 
187.000000 -143.000000 -99.000000 
209.000000 -143.000000 -99.000000 
231.000000 -165.000000 -121.000000 
253.000000 -165.000000 -121.000000 
231.000000 -143.000000 -121.000000 
231.000000 -165.000000 -99.000000 
253.000000 -143.000000 -121.000000 
253.000000 -165.000000 -99.000000 
231.000000 -143.000000 -99.000000 
253.000000 -143.000000 -99.000000 
187.000000 -121.000000 -121.000000 
209.000000 -121.000000 -121.000000 
187.000000 -99.000000 -121.000000 
187.000000 -121.000000 -99.000000 
209.000000 -99.000000 -121.000000 
209.000000 -121.000000 -99.000000 
187.000000 -99.000000 -99.000000 
209.000000 -99.000000 -99.000000 
231.000000 -121.000000 -121.000000 
253.000000 -121.000000 -121.000000 
231.000000 -99.000000 -121.000000 
231.000000 -121.000000 -99.000000 
253.000000 -99.000000 -121.000000 
253.000000 -121.000000 -99.000000 
231.000000 -99.000000 -99.000000 
253.000000 -99.000000 -99.000000 
297.000000 -165.000000 -143.000000 
341.000000 -165.000000 -165.000000 
319.000000 -165.000000 -143.000000 
341.000000 -165.000000 -143.000000 
275.000000 -165.000000 -121.000000 
297.000000 -165.000000 -121.000000 
275.000000 -143.000000 -121.000000 
275.000000 -165.000000 -99.000000 
297.000000 -143.000000 -121.000000 
275.000000 -143.000000 -99.000000 
319.000000 -165.000000 -121.000000 
341.000000 -165.000000 -121.000000 
319.000000 -143.000000 -121.000000 
275.000000 -121.000000 -121.000000 
297.000000 -121.000000 -121.000000 
275.000000 -99.000000 -121.000000 
187.000000 -77.000000 -121.000000 
209.000000 -77.000000 -121.000000 
187.000000 -77.000000 -99.000000 
209.000000 -77.000000 -99.000000 
385.000000 -209.000000 -275.000000 
407.000000 -209.000000 -297.000000 
407.000000 -187.000000 -297.000000 
407.000000 -209.000000 -275.000000 
407.000000 -187.000000 -275.000000 
385.000000 -209.000000 -253.000000 
363.000000 -209.000000 -231.000000 
385.000000 -209.000000 -231.000000 
363.000000 -187.000000 -231.000000 
385.000000 -187.000000 -231.000000 
407.000000 -209.000000 -253.000000 
407.000000 -187.000000 -253.000000 
407.000000 -209.000000 -231.000000 
363.000000 -209.000000 -209.000000 
385.000000 -209.000000 -209.000000 
363.000000 -187.000000 -209.000000 
363.000000 -209.000000 -187.000000 
385.000000 -187.000000 -209.000000 
363.000000 -187.000000 -187.000000 
363.000000 -165.000000 -187.000000 
363.000000 -209.000000 -165.000000 
363.000000 -187.000000 -165.000000 
363.000000 -165.000000 -165.000000 
-11.000000 11.000000 -429.000000 
-11.000000 11.000000 -407.000000 
-11.000000 11.000000 -385.000000 
-11.000000 11.000000 -363.000000 
-473.000000 165.000000 -77.000000 
-473.000000 165.000000 -55.000000 
-473.000000 165.000000 -33.000000 
-451.000000 165.000000 -33.000000 
-451.000000 143.000000 -11.000000 
-473.000000 165.000000 -11.000000 
-451.000000 165.000000 -11.000000 
-429.000000 143.000000 -11.000000 
-429.000000 165.000000 -11.000000 
-517.000000 187.000000 -165.000000 
-517.000000 187.000000 -143.000000 
-517.000000 187.000000 -121.000000 
-495.000000 187.000000 -99.000000 
-495.000000 187.000000 -77.000000 
-495.000000 187.000000 -55.000000 
-473.000000 187.000000 -77.000000 
-473.000000 187.000000 -55.000000 
-473.000000 187.000000 -33.000000 
-451.000000 187.000000 -33.000000 
-451.000000 187.000000 -11.000000 
-429.000000 187.000000 -11.000000 
-11.000000 11.000000 -341.000000 
-11.000000 11.000000 -319.000000 
-11.000000 33.000000 -319.000000 
-11.000000 11.000000 -297.000000 
-11.000000 33.000000 -297.000000 
-11.000000 11.000000 -275.000000 
-11.000000 55.000000 -297.000000 
-11.000000 55.000000 -275.000000 
-11.000000 77.000000 -275.000000 
-11.000000 11.000000 -231.000000 
-55.000000 11.000000 -99.000000 
-33.000000 11.000000 -99.000000 
-11.000000 11.000000 -99.000000 
-99.000000 11.000000 -33.000000 
-121.000000 11.000000 -11.000000 
-99.000000 33.000000 -33.000000 
-99.000000 11.000000 -11.000000 
-121.000000 33.000000 -11.000000 
-99.000000 33.000000 -11.000000 
-121.000000 55.000000 -11.000000 
-99.000000 55.000000 -11.000000 
-55.000000 11.000000 -77.000000 
-77.000000 11.000000 -55.000000 
-55.000000 11.000000 -55.000000 
-77.000000 33.000000 -55.000000 
-33.000000 11.000000 -77.000000 
-11.000000 11.000000 -77.000000 
-33.000000 11.000000 -55.000000 
-11.000000 11.000000 -55.000000 
-77.000000 11.000000 -33.000000 
-55.000000 11.000000 -33.000000 
-77.000000 33.000000 -33.000000 
-77.000000 11.000000 -11.000000 
-55.000000 33.000000 -33.000000 
-77.000000 33.000000 -11.000000 
-187.000000 -33.000000 33.000000 
-11.000000 -55.000000 33.000000 
-11.000000 -33.000000 11.000000 
-33.000000 -11.000000 11.000000 
-11.000000 -11.000000 11.000000 
-11.000000 -33.000000 33.000000 
-33.000000 -11.000000 33.000000 
-11.000000 -11.000000 33.000000 
-11.000000 -55.000000 55.000000 
-11.000000 -55.000000 77.000000 
-11.000000 -33.000000 55.000000 
-33.000000 -11.000000 55.000000 
-11.000000 -11.000000 55.000000 
-11.000000 -33.000000 77.000000 
-33.000000 -11.000000 77.000000 
-11.000000 -11.000000 77.000000 
-11.000000 -55.000000 99.000000 
-11.000000 -55.000000 121.000000 
-11.000000 -33.000000 99.000000 
-33.000000 -11.000000 99.000000 
-11.000000 -11.000000 99.000000 
-11.000000 -33.000000 121.000000 
-11.000000 -11.000000 121.000000 
-11.000000 -77.000000 143.000000 
-33.000000 -55.000000 143.000000 
-11.000000 -55.000000 143.000000 
-33.000000 -55.000000 165.000000 
-11.000000 -55.000000 165.000000 
-33.000000 -33.000000 143.000000 
-11.000000 -33.000000 143.000000 
-33.000000 -33.000000 165.000000 
-11.000000 -11.000000 143.000000 
-11.000000 -33.000000 165.000000 
-33.000000 -11.000000 165.000000 
-11.000000 -11.000000 165.000000 
-55.000000 -55.000000 209.000000 
-33.000000 -55.000000 187.000000 
-11.000000 -55.000000 187.000000 
-33.000000 -55.000000 209.000000 
-11.000000 -55.000000 209.000000 
-55.000000 -33.000000 209.000000 
-55.000000 -11.000000 209.000000 
-55.000000 -55.000000 231.000000 
-77.000000 -55.000000 253.000000 
-55.000000 -55.000000 253.000000 
-33.000000 -33.000000 187.000000 
-11.000000 -33.000000 187.000000 
-33.000000 -11.000000 187.000000 
-33.000000 -33.000000 209.000000 
-11.000000 -11.000000 187.000000 
-11.000000 -33.000000 209.000000 
-33.000000 -11.000000 209.000000 
-11.000000 -11.000000 209.000000 
-33.000000 -55.000000 231.000000 
-33.000000 -55.000000 253.000000 
-55.000000 -33.000000 231.000000 
-77.000000 -33.000000 253.000000 
-55.000000 -11.000000 231.000000 
-55.000000 -33.000000 253.000000 
-77.000000 -11.000000 253.000000 
-55.000000 -11.000000 253.000000 
-33.000000 -33.000000 231.000000 
-11.000000 -33.000000 231.000000 
-33.000000 -11.000000 231.000000 
-33.000000 -33.000000 253.000000 
-11.000000 -11.000000 231.000000 
-11.000000 -33.000000 253.000000 
-33.000000 -11.000000 253.000000 
-11.000000 -11.000000 253.000000 
-99.000000 -33.000000 275.000000 
-99.000000 -11.000000 275.000000 
-99.000000 -33.000000 297.000000 
-99.000000 -11.000000 297.000000 
-143.000000 -11.000000 319.000000 
-143.000000 -33.000000 341.000000 
-165.000000 -11.000000 341.000000 
-143.000000 -11.000000 341.000000 
-121.000000 -33.000000 319.000000 
-99.000000 -33.000000 319.000000 
-121.000000 -11.000000 319.000000 
-99.000000 -11.000000 319.000000 
-121.000000 -11.000000 341.000000 
-99.000000 -11.000000 341.000000 
-77.000000 -55.000000 275.000000 
-55.000000 -55.000000 275.000000 
-33.000000 -55.000000 275.000000 
-11.000000 -55.000000 275.000000 
-11.000000 -77.000000 297.000000 
-33.000000 -55.000000 297.000000 
-11.000000 -55.000000 297.000000 
-77.000000 -33.000000 275.000000 
-55.000000 -33.000000 275.000000 
-77.000000 -11.000000 275.000000 
-55.000000 -11.000000 275.000000 
-77.000000 -11.000000 297.000000 
-33.000000 -33.000000 275.000000 
-11.000000 -33.000000 275.000000 
-33.000000 -11.000000 275.000000 
-33.000000 -33.000000 297.000000 
-11.000000 -11.000000 275.000000 
-11.000000 -33.000000 297.000000 
-33.000000 -11.000000 297.000000 
-11.000000 -11.000000 297.000000 
-11.000000 -77.000000 319.000000 
-33.000000 -55.000000 319.000000 
-33.000000 -77.000000 341.000000 
-11.000000 -55.000000 319.000000 
-11.000000 -77.000000 341.000000 
-33.000000 -55.000000 341.000000 
-11.000000 -55.000000 341.000000 
-77.000000 -11.000000 319.000000 
-33.000000 -33.000000 319.000000 
-11.000000 -33.000000 319.000000 
-33.000000 -11.000000 319.000000 
-33.000000 -33.000000 341.000000 
-11.000000 -11.000000 319.000000 
-11.000000 -33.000000 341.000000 
-33.000000 -11.000000 341.000000 
-11.000000 -11.000000 341.000000 
-209.000000 -11.000000 385.000000 
-187.000000 -11.000000 385.000000 
-319.000000 -11.000000 451.000000 
-55.000000 -121.000000 429.000000 
-77.000000 -99.000000 429.000000 
-55.000000 -99.000000 429.000000 
-33.000000 -121.000000 429.000000 
-11.000000 -121.000000 429.000000 
-33.000000 -99.000000 429.000000 
-11.000000 -99.000000 429.000000 
-165.000000 -11.000000 363.000000 
-143.000000 -11.000000 363.000000 
-165.000000 -11.000000 385.000000 
-99.000000 -33.000000 429.000000 
-99.000000 -11.000000 429.000000 
-99.000000 -99.000000 495.000000 
-99.000000 -99.000000 517.000000 
-55.000000 -55.000000 385.000000 
-33.000000 -77.000000 363.000000 
-11.000000 -77.000000 363.000000 
-33.000000 -55.000000 363.000000 
-33.000000 -77.000000 385.000000 
-11.000000 -55.000000 363.000000 
-11.000000 -77.000000 385.000000 
-33.000000 -55.000000 385.000000 
-11.000000 -55.000000 385.000000 
-55.000000 -33.000000 363.000000 
-55.000000 -11.000000 363.000000 
-55.000000 -33.000000 385.000000 
-55.000000 -11.000000 385.000000 
-55.000000 -77.000000 407.000000 
-77.000000 -55.000000 407.000000 
-77.000000 -77.000000 429.000000 
-55.000000 -55.000000 407.000000 
-55.000000 -77.000000 429.000000 
-77.000000 -55.000000 429.000000 
-55.000000 -55.000000 429.000000 
-33.000000 -33.000000 363.000000 
-11.000000 -33.000000 363.000000 
-33.000000 -11.000000 363.000000 
-33.000000 -33.000000 385.000000 
-11.000000 -11.000000 363.000000 
-11.000000 -33.000000 385.000000 
-33.000000 -11.000000 385.000000 
-11.000000 -11.000000 385.000000 
-33.000000 -77.000000 407.000000 
-11.000000 -77.000000 407.000000 
-33.000000 -55.000000 407.000000 
-33.000000 -77.000000 429.000000 
-11.000000 -55.000000 407.000000 
-11.000000 -77.000000 429.000000 
-33.000000 -55.000000 429.000000 
-11.000000 -55.000000 429.000000 
-77.000000 -33.000000 407.000000 
-55.000000 -33.000000 407.000000 
-77.000000 -11.000000 407.000000 
-77.000000 -33.000000 429.000000 
-55.000000 -11.000000 407.000000 
-55.000000 -33.000000 429.000000 
-77.000000 -11.000000 429.000000 
-55.000000 -11.000000 429.000000 
-33.000000 -33.000000 407.000000 
-11.000000 -33.000000 407.000000 
-33.000000 -11.000000 407.000000 
-33.000000 -33.000000 429.000000 
-11.000000 -11.000000 407.000000 
-11.000000 -33.000000 429.000000 
-33.000000 -11.000000 429.000000 
-11.000000 -11.000000 429.000000 
-55.000000 -121.000000 451.000000 
-77.000000 -99.000000 451.000000 
-55.000000 -99.000000 451.000000 
-33.000000 -121.000000 451.000000 
-11.000000 -121.000000 451.000000 
-33.000000 -99.000000 451.000000 
-33.000000 -121.000000 473.000000 
-11.000000 -99.000000 451.000000 
-11.000000 -121.000000 473.000000 
-33.000000 -99.000000 473.000000 
-11.000000 -99.000000 473.000000 
-77.000000 -99.000000 495.000000 
-55.000000 -99.000000 495.000000 
-55.000000 -99.000000 517.000000 
-33.000000 -121.000000 495.000000 
-33.000000 -99.000000 495.000000 
-33.000000 -121.000000 517.000000 
-11.000000 -99.000000 495.000000 
-11.000000 -121.000000 517.000000 
-33.000000 -99.000000 517.000000 
-11.000000 -99.000000 517.000000 
-99.000000 -77.000000 451.000000 
-99.000000 -55.000000 451.000000 
-99.000000 -33.000000 451.000000 
-99.000000 -11.000000 451.000000 
-99.000000 -33.000000 473.000000 
-99.000000 -11.000000 473.000000 
-99.000000 -77.000000 495.000000 
-99.000000 -55.000000 517.000000 
-99.000000 -33.000000 495.000000 
-99.000000 -11.000000 495.000000 
-99.000000 -33.000000 517.000000 
-121.000000 -11.000000 517.000000 
-99.000000 -11.000000 517.000000 
-77.000000 -77.000000 451.000000 
-55.000000 -77.000000 451.000000 
-77.000000 -55.000000 451.000000 
-55.000000 -55.000000 451.000000 
-55.000000 -77.000000 473.000000 
-77.000000 -55.000000 473.000000 
-55.000000 -55.000000 473.000000 
-33.000000 -77.000000 451.000000 
-11.000000 -77.000000 451.000000 
-33.000000 -55.000000 451.000000 
-33.000000 -77.000000 473.000000 
-11.000000 -55.000000 451.000000 
-11.000000 -77.000000 473.000000 
-33.000000 -55.000000 473.000000 
-11.000000 -55.000000 473.000000 
-77.000000 -33.000000 451.000000 
-55.000000 -33.000000 451.000000 
-77.000000 -11.000000 451.000000 
-77.000000 -33.000000 473.000000 
-55.000000 -11.000000 451.000000 
-55.000000 -33.000000 473.000000 
-77.000000 -11.000000 473.000000 
-55.000000 -11.000000 473.000000 
-55.000000 -77.000000 495.000000 
-77.000000 -55.000000 495.000000 
-77.000000 -77.000000 517.000000 
-55.000000 -55.000000 495.000000 
-55.000000 -77.000000 517.000000 
-77.000000 -55.000000 517.000000 
-55.000000 -55.000000 517.000000 
-33.000000 -33.000000 451.000000 
-11.000000 -33.000000 451.000000 
-33.000000 -11.000000 451.000000 
-33.000000 -33.000000 473.000000 
-11.000000 -11.000000 451.000000 
-11.000000 -33.000000 473.000000 
-33.000000 -11.000000 473.000000 
-11.000000 -11.000000 473.000000 
-33.000000 -77.000000 495.000000 
-11.000000 -77.000000 495.000000 
-33.000000 -55.000000 495.000000 
-33.000000 -77.000000 517.000000 
-11.000000 -55.000000 495.000000 
-11.000000 -77.000000 517.000000 
-33.000000 -55.000000 517.000000 
-11.000000 -55.000000 517.000000 
-77.000000 -33.000000 495.000000 
-55.000000 -33.000000 495.000000 
-77.000000 -11.000000 495.000000 
-77.000000 -33.000000 517.000000 
-55.000000 -11.000000 495.000000 
-55.000000 -33.000000 517.000000 
-77.000000 -11.000000 517.000000 
-55.000000 -11.000000 517.000000 
-33.000000 -33.000000 495.000000 
-11.000000 -33.000000 495.000000 
-33.000000 -11.000000 495.000000 
-33.000000 -33.000000 517.000000 
-11.000000 -11.000000 495.000000 
-11.000000 -33.000000 517.000000 
-33.000000 -11.000000 517.000000 
-11.000000 -11.000000 517.000000 
-187.000000 -55.000000 605.000000 
-187.000000 -33.000000 605.000000 
-209.000000 -11.000000 605.000000 
-187.000000 -11.000000 605.000000 
-209.000000 -99.000000 649.000000 
-187.000000 -99.000000 693.000000 
-275.000000 -55.000000 649.000000 
-275.000000 -55.000000 671.000000 
-275.000000 -55.000000 693.000000 
-253.000000 -77.000000 627.000000 
-253.000000 -55.000000 627.000000 
-253.000000 -77.000000 649.000000 
-253.000000 -55.000000 649.000000 
-209.000000 -55.000000 627.000000 
-187.000000 -77.000000 649.000000 
-187.000000 -55.000000 649.000000 
-231.000000 -33.000000 649.000000 
-231.000000 -11.000000 649.000000 
-253.000000 -55.000000 671.000000 
-253.000000 -55.000000 693.000000 
-209.000000 -33.000000 627.000000 
-187.000000 -33.000000 627.000000 
-209.000000 -11.000000 627.000000 
-209.000000 -33.000000 649.000000 
-187.000000 -11.000000 627.000000 
-209.000000 -11.000000 649.000000 
-187.000000 -55.000000 693.000000 
-253.000000 -33.000000 671.000000 
-253.000000 -33.000000 693.000000 
-231.000000 -11.000000 671.000000 
-187.000000 -11.000000 671.000000 
-187.000000 -11.000000 693.000000 
-77.000000 -99.000000 539.000000 
-55.000000 -99.000000 539.000000 
-77.000000 -99.000000 561.000000 
-55.000000 -99.000000 561.000000 
-33.000000 -121.000000 539.000000 
-11.000000 -121.000000 539.000000 
-33.000000 -99.000000 539.000000 
-33.000000 -121.000000 561.000000 
-11.000000 -99.000000 539.000000 
-11.000000 -121.000000 561.000000 
-33.000000 -99.000000 561.000000 
-11.000000 -99.000000 561.000000 
-77.000000 -99.000000 583.000000 
-77.000000 -121.000000 605.000000 
-55.000000 -99.000000 583.000000 
-55.000000 -121.000000 605.000000 
-77.000000 -99.000000 605.000000 
-55.000000 -99.000000 605.000000 
-33.000000 -99.000000 583.000000 
-11.000000 -99.000000 583.000000 
-33.000000 -99.000000 605.000000 
-11.000000 -99.000000 605.000000 
-99.000000 -55.000000 539.000000 
-99.000000 -77.000000 561.000000 
-121.000000 -55.000000 561.000000 
-99.000000 -55.000000 561.000000 
-143.000000 -11.000000 539.000000 
-143.000000 -11.000000 561.000000 
-143.000000 -77.000000 605.000000 
-165.000000 -55.000000 605.000000 
-143.000000 -55.000000 605.000000 
-121.000000 -33.000000 539.000000 
-99.000000 -33.000000 539.000000 
-121.000000 -11.000000 539.000000 
-121.000000 -33.000000 561.000000 
-99.000000 -11.000000 539.000000 
-99.000000 -33.000000 561.000000 
-121.000000 -11.000000 561.000000 
-99.000000 -11.000000 561.000000 
-99.000000 -77.000000 583.000000 
-121.000000 -55.000000 583.000000 
-121.000000 -77.000000 605.000000 
-99.000000 -55.000000 583.000000 
-99.000000 -77.000000 605.000000 
-121.000000 -55.000000 605.000000 
-99.000000 -55.000000 605.000000 
-143.000000 -33.000000 583.000000 
-165.000000 -11.000000 583.000000 
-143.000000 -11.000000 583.000000 
-143.000000 -33.000000 605.000000 
-165.000000 -11.000000 605.000000 
-143.000000 -11.000000 605.000000 
-121.000000 -33.000000 583.000000 
-99.000000 -33.000000 583.000000 
-121.000000 -11.000000 583.000000 
-121.000000 -33.000000 605.000000 
-99.000000 -11.000000 583.000000 
-99.000000 -33.000000 605.000000 
-121.000000 -11.000000 605.000000 
-99.000000 -11.000000 605.000000 
-99.000000 -143.000000 627.000000 
-99.000000 -143.000000 649.000000 
-143.000000 -121.000000 627.000000 
-165.000000 -99.000000 627.000000 
-143.000000 -99.000000 627.000000 
-143.000000 -121.000000 649.000000 
-165.000000 -99.000000 649.000000 
-143.000000 -99.000000 649.000000 
-121.000000 -121.000000 627.000000 
-99.000000 -121.000000 627.000000 
-121.000000 -99.000000 627.000000 
-121.000000 -121.000000 649.000000 
-99.000000 -99.000000 627.000000 
-99.000000 -121.000000 649.000000 
-121.000000 -99.000000 649.000000 
-99.000000 -99.000000 649.000000 
-143.000000 -121.000000 671.000000 
-165.000000 -99.000000 671.000000 
-143.000000 -99.000000 671.000000 
-121.000000 -121.000000 671.000000 
-99.000000 -121.000000 671.000000 
-121.000000 -99.000000 671.000000 
-121.000000 -121.000000 693.000000 
-99.000000 -99.000000 671.000000 
-99.000000 -121.000000 693.000000 
-121.000000 -99.000000 693.000000 
-99.000000 -99.000000 693.000000 
-77.000000 -77.000000 539.000000 
-55.000000 -77.000000 539.000000 
-77.000000 -55.000000 539.000000 
-77.000000 -77.000000 561.000000 
-55.000000 -55.000000 539.000000 
-55.000000 -77.000000 561.000000 
-77.000000 -55.000000 561.000000 
-55.000000 -55.000000 561.000000 
-33.000000 -77.000000 539.000000 
-11.000000 -77.000000 539.000000 
-33.000000 -55.000000 539.000000 
-33.000000 -77.000000 561.000000 
-11.000000 -55.000000 539.000000 
-11.000000 -77.000000 561.000000 
-33.000000 -55.000000 561.000000 
-11.000000 -55.000000 561.000000 
-77.000000 -33.000000 539.000000 
-55.000000 -33.000000 539.000000 
-77.000000 -11.000000 539.000000 
-77.000000 -33.000000 561.000000 
-55.000000 -11.000000 539.000000 
-55.000000 -33.000000 561.000000 
-77.000000 -11.000000 561.000000 
-55.000000 -11.000000 561.000000 
-77.000000 -77.000000 583.000000 
-55.000000 -77.000000 583.000000 
-77.000000 -55.000000 583.000000 
-77.000000 -77.000000 605.000000 
-55.000000 -55.000000 583.000000 
-55.000000 -77.000000 605.000000 
-77.000000 -55.000000 605.000000 
-55.000000 -55.000000 605.000000 
-33.000000 -33.000000 539.000000 
-11.000000 -33.000000 539.000000 
-33.000000 -11.000000 539.000000 
-33.000000 -33.000000 561.000000 
-11.000000 -11.000000 539.000000 
-11.000000 -33.000000 561.000000 
-33.000000 -11.000000 561.000000 
-11.000000 -11.000000 561.000000 
-33.000000 -77.000000 583.000000 
-11.000000 -77.000000 583.000000 
-33.000000 -55.000000 583.000000 
-33.000000 -77.000000 605.000000 
-11.000000 -55.000000 583.000000 
-11.000000 -77.000000 605.000000 
-33.000000 -55.000000 605.000000 
-11.000000 -55.000000 605.000000 
-77.000000 -33.000000 583.000000 
-55.000000 -33.000000 583.000000 
-77.000000 -11.000000 583.000000 
-77.000000 -33.000000 605.000000 
-55.000000 -11.000000 583.000000 
-55.000000 -33.000000 605.000000 
-77.000000 -11.000000 605.000000 
-55.000000 -11.000000 605.000000 
-33.000000 -33.000000 583.000000 
-11.000000 -33.000000 583.000000 
-33.000000 -11.000000 583.000000 
-33.000000 -33.000000 605.000000 
-11.000000 -11.000000 583.000000 
-11.000000 -33.000000 605.000000 
-33.000000 -11.000000 605.000000 
-11.000000 -11.000000 605.000000 
-77.000000 -143.000000 627.000000 
-77.000000 -143.000000 649.000000 
-55.000000 -121.000000 627.000000 
-77.000000 -99.000000 627.000000 
-77.000000 -121.000000 649.000000 
-55.000000 -99.000000 627.000000 
-55.000000 -121.000000 649.000000 
-77.000000 -99.000000 649.000000 
-55.000000 -99.000000 649.000000 
-77.000000 -143.000000 671.000000 
-77.000000 -143.000000 693.000000 
-33.000000 -99.000000 627.000000 
-11.000000 -99.000000 627.000000 
-33.000000 -99.000000 649.000000 
-77.000000 -121.000000 671.000000 
-55.000000 -121.000000 671.000000 
-77.000000 -99.000000 671.000000 
-77.000000 -121.000000 693.000000 
-55.000000 -99.000000 671.000000 
-55.000000 -121.000000 693.000000 
-77.000000 -99.000000 693.000000 
-55.000000 -99.000000 693.000000 
-33.000000 -99.000000 671.000000 
-143.000000 -77.000000 627.000000 
-165.000000 -55.000000 627.000000 
-165.000000 -77.000000 649.000000 
-143.000000 -55.000000 627.000000 
-143.000000 -77.000000 649.000000 
-165.000000 -55.000000 649.000000 
-143.000000 -55.000000 649.000000 
-121.000000 -77.000000 627.000000 
-99.000000 -77.000000 627.000000 
-121.000000 -55.000000 627.000000 
-121.000000 -77.000000 649.000000 
-99.000000 -55.000000 627.000000 
-99.000000 -77.000000 649.000000 
-121.000000 -55.000000 649.000000 
-99.000000 -55.000000 649.000000 
-165.000000 -33.000000 627.000000 
-143.000000 -33.000000 627.000000 
-165.000000 -11.000000 627.000000 
-165.000000 -33.000000 649.000000 
-143.000000 -11.000000 627.000000 
-143.000000 -33.000000 649.000000 
-165.000000 -11.000000 649.000000 
-143.000000 -11.000000 649.000000 
-165.000000 -77.000000 671.000000 
-143.000000 -77.000000 671.000000 
-165.000000 -55.000000 671.000000 
-143.000000 -77.000000 693.000000 
-165.000000 -55.000000 693.000000 
-143.000000 -55.000000 693.000000 
-121.000000 -33.000000 627.000000 
-99.000000 -33.000000 627.000000 
-121.000000 -11.000000 627.000000 
-121.000000 -33.000000 649.000000 
-99.000000 -11.000000 627.000000 
-99.000000 -33.000000 649.000000 
-121.000000 -11.000000 649.000000 
-99.000000 -11.000000 649.000000 
-99.000000 -77.000000 671.000000 
-121.000000 -55.000000 671.000000 
-99.000000 -55.000000 671.000000 
-99.000000 -77.000000 693.000000 
-165.000000 -33.000000 671.000000 
-143.000000 -33.000000 671.000000 
-165.000000 -11.000000 671.000000 
-165.000000 -33.000000 693.000000 
-143.000000 -11.000000 671.000000 
-143.000000 -33.000000 693.000000 
-165.000000 -11.000000 693.000000 
-143.000000 -11.000000 693.000000 
-121.000000 -33.000000 671.000000 
-99.000000 -33.000000 671.000000 
-121.000000 -11.000000 671.000000 
-121.000000 -33.000000 693.000000 
-99.000000 -11.000000 671.000000 
-99.000000 -33.000000 693.000000 
-121.000000 -11.000000 693.000000 
-99.000000 -11.000000 693.000000 
-77.000000 -77.000000 627.000000 
-55.000000 -77.000000 627.000000 
-77.000000 -55.000000 627.000000 
-77.000000 -77.000000 649.000000 
-55.000000 -55.000000 627.000000 
-55.000000 -77.000000 649.000000 
-77.000000 -55.000000 649.000000 
-55.000000 -55.000000 649.000000 
-33.000000 -77.000000 627.000000 
-11.000000 -77.000000 627.000000 
-33.000000 -55.000000 627.000000 
-33.000000 -77.000000 649.000000 
-11.000000 -55.000000 627.000000 
-33.000000 -55.000000 649.000000 
-77.000000 -33.000000 627.000000 
-55.000000 -33.000000 627.000000 
-77.000000 -11.000000 627.000000 
-77.000000 -33.000000 649.000000 
-55.000000 -11.000000 627.000000 
-55.000000 -33.000000 649.000000 
-77.000000 -11.000000 649.000000 
-55.000000 -11.000000 649.000000 
-77.000000 -77.000000 671.000000 
-55.000000 -77.000000 671.000000 
-77.000000 -55.000000 671.000000 
-77.000000 -77.000000 693.000000 
-55.000000 -55.000000 671.000000 
-55.000000 -77.000000 693.000000 
-77.000000 -55.000000 693.000000 
-33.000000 -33.000000 627.000000 
-33.000000 -11.000000 627.000000 
-33.000000 -33.000000 649.000000 
-33.000000 -77.000000 671.000000 
-33.000000 -55.000000 671.000000 
-77.000000 -33.000000 671.000000 
-55.000000 -33.000000 671.000000 
-77.000000 -11.000000 671.000000 
-275.000000 -55.000000 715.000000 
-253.000000 -77.000000 715.000000 
-253.000000 -55.000000 715.000000 
-253.000000 -55.000000 737.000000 
-231.000000 -55.000000 737.000000 
-209.000000 -55.000000 715.000000 
-187.000000 -55.000000 715.000000 
-209.000000 -55.000000 737.000000 
-187.000000 -55.000000 737.000000 
-253.000000 -33.000000 715.000000 
-253.000000 -33.000000 737.000000 
-231.000000 -33.000000 737.000000 
-231.000000 -11.000000 737.000000 
-187.000000 -33.000000 715.000000 
-209.000000 -11.000000 715.000000 
-209.000000 -33.000000 737.000000 
-187.000000 -11.000000 715.000000 
-187.000000 -33.000000 737.000000 
-209.000000 -11.000000 737.000000 
-187.000000 -11.000000 737.000000 
-165.000000 -55.000000 715.000000 
-143.000000 -55.000000 715.000000 
-165.000000 -55.000000 737.000000 
-143.000000 -55.000000 737.000000 
-165.000000 -33.000000 715.000000 
-143.000000 -33.000000 715.000000 
-165.000000 -11.000000 715.000000 
-165.000000 -33.000000 737.000000 
-143.000000 -11.000000 715.000000 
-143.000000 -33.000000 737.000000 
-165.000000 -11.000000 737.000000 
-121.000000 -33.000000 715.000000 
-121.000000 -11.000000 715.000000 
77.000000 253.000000 -363.000000 
99.000000 253.000000 -363.000000 
77.000000 275.000000 -363.000000 
99.000000 275.000000 -385.000000 
99.000000 275.000000 -363.000000 
11.000000 11.000000 -319.000000 
11.000000 33.000000 -319.000000 
11.000000 11.000000 -297.000000 
33.000000 11.000000 -297.000000 
11.000000 33.000000 -297.000000 
33.000000 33.000000 -297.000000 
11.000000 33.000000 -275.000000 
11.000000 55.000000 -297.000000 
33.000000 55.000000 -297.000000 
11.000000 77.000000 -297.000000 
11.000000 55.000000 -275.000000 
33.000000 55.000000 -275.000000 
11.000000 77.000000 -275.000000 
33.000000 77.000000 -275.000000 
55.000000 77.000000 -275.000000 
11.000000 99.000000 -275.000000 
33.000000 99.000000 -275.000000 
11.000000 121.000000 -275.000000 
33.000000 121.000000 -275.000000 
55.000000 99.000000 -275.000000 
55.000000 121.000000 -275.000000 
77.000000 121.000000 -275.000000 
33.000000 165.000000 -297.000000 
33.000000 143.000000 -275.000000 
33.000000 165.000000 -275.000000 
55.000000 165.000000 -297.000000 
55.000000 143.000000 -275.000000 
77.000000 143.000000 -275.000000 
55.000000 165.000000 -275.000000 
77.000000 165.000000 -275.000000 
55.000000 209.000000 -319.000000 
77.000000 209.000000 -319.000000 
33.000000 187.000000 -297.000000 
33.000000 187.000000 -275.000000 
77.000000 231.000000 -341.000000 
55.000000 231.000000 -319.000000 
77.000000 253.000000 -341.000000 
77.000000 231.000000 -319.000000 
77.000000 253.000000 -319.000000 
55.000000 187.000000 -297.000000 
77.000000 187.000000 -297.000000 
55.000000 209.000000 -297.000000 
55.000000 187.000000 -275.000000 
77.000000 209.000000 -297.000000 
55.000000 231.000000 -297.000000 
77.000000 231.000000 -297.000000 
99.000000 253.000000 -341.000000 
99.000000 231.000000 -319.000000 
77.000000 275.000000 -341.000000 
99.000000 275.000000 -341.000000 
11.000000 -33.000000 11.000000 
11.000000 -11.000000 11.000000 
11.000000 -33.000000 33.000000 
11.000000 -11.000000 33.000000 
11.000000 -55.000000 55.000000 
11.000000 -55.000000 77.000000 
33.000000 -55.000000 77.000000 
11.000000 -33.000000 55.000000 
33.000000 -33.000000 55.000000 
11.000000 -11.000000 55.000000 
11.000000 -33.000000 77.000000 
33.000000 -11.000000 55.000000 
33.000000 -33.000000 77.000000 
11.000000 -11.000000 77.000000 
33.000000 -11.000000 77.000000 
11.000000 -99.000000 143.000000 
33.000000 -121.000000 165.000000 
33.000000 -99.000000 165.000000 
55.000000 -121.000000 165.000000 
77.000000 -121.000000 165.000000 
55.000000 -99.000000 165.000000 
77.000000 -99.000000 165.000000 
99.000000 -99.000000 165.000000 
11.000000 -77.000000 99.000000 
33.000000 -77.000000 99.000000 
11.000000 -55.000000 99.000000 
11.000000 -77.000000 121.000000 
33.000000 -55.000000 99.000000 
33.000000 -77.000000 121.000000 
11.000000 -55.000000 121.000000 
33.000000 -55.000000 121.000000 
55.000000 -55.000000 99.000000 
55.000000 -77.000000 121.000000 
55.000000 -55.000000 121.000000 
11.000000 -33.000000 99.000000 
33.000000 -33.000000 99.000000 
11.000000 -11.000000 99.000000 
11.000000 -33.000000 121.000000 
33.000000 -33.000000 121.000000 
11.000000 -11.000000 121.000000 
33.000000 -77.000000 143.000000 
33.000000 -55.000000 143.000000 
33.000000 -77.000000 165.000000 
33.000000 -55.000000 165.000000 
55.000000 -33.000000 121.000000 
55.000000 -77.000000 143.000000 
77.000000 -77.000000 143.000000 
55.000000 -55.000000 143.000000 
55.000000 -77.000000 165.000000 
77.000000 -55.000000 143.000000 
77.000000 -77.000000 165.000000 
55.000000 -55.000000 165.000000 
77.000000 -55.000000 165.000000 
11.000000 -33.000000 143.000000 
11.000000 -11.000000 143.000000 
11.000000 -33.000000 165.000000 
11.000000 -11.000000 165.000000 
55.000000 -33.000000 143.000000 
55.000000 -33.000000 165.000000 
77.000000 -33.000000 165.000000 
99.000000 -77.000000 165.000000 
99.000000 -55.000000 165.000000 
165.000000 -209.000000 253.000000 
143.000000 -187.000000 253.000000 
165.000000 -187.000000 253.000000 
231.000000 -231.000000 253.000000 
253.000000 -231.000000 253.000000 
187.000000 -187.000000 253.000000 
209.000000 -187.000000 253.000000 
231.000000 -209.000000 253.000000 
231.000000 -187.000000 253.000000 
253.000000 -187.000000 253.000000 
341.000000 -253.000000 253.000000 
341.000000 -231.000000 253.000000 
297.000000 -187.000000 253.000000 
319.000000 -187.000000 253.000000 
231.000000 -231.000000 275.000000 
253.000000 -231.000000 275.000000 
209.000000 -209.000000 275.000000 
209.000000 -187.000000 275.000000 
231.000000 -209.000000 275.000000 
253.000000 -209.000000 275.000000 
231.000000 -187.000000 275.000000 
253.000000 -187.000000 275.000000 
297.000000 -253.000000 275.000000 
275.000000 -231.000000 275.000000 
297.000000 -231.000000 275.000000 
319.000000 -253.000000 275.000000 
341.000000 -253.000000 275.000000 
319.000000 -231.000000 275.000000 
341.000000 -231.000000 275.000000 
275.000000 -209.000000 275.000000 
297.000000 -209.000000 275.000000 
275.000000 -187.000000 275.000000 
297.000000 -187.000000 275.000000 
319.000000 -209.000000 275.000000 
341.000000 -209.000000 275.000000 
319.000000 -187.000000 275.000000 
341.000000 -187.000000 275.000000 
77.000000 -121.000000 187.000000 
77.000000 -99.000000 187.000000 
77.000000 -121.000000 209.000000 
99.000000 -121.000000 187.000000 
99.000000 -99.000000 187.000000 
99.000000 -121.000000 209.000000 
121.000000 -99.000000 187.000000 
121.000000 -121.000000 209.000000 
99.000000 -99.000000 209.000000 
121.000000 -99.000000 209.000000 
99.000000 -165.000000 231.000000 
121.000000 -165.000000 231.000000 
99.000000 -143.000000 231.000000 
121.000000 -143.000000 231.000000 
143.000000 -121.000000 209.000000 
143.000000 -99.000000 209.000000 
143.000000 -165.000000 231.000000 
165.000000 -165.000000 231.000000 
143.000000 -143.000000 231.000000 
143.000000 -165.000000 253.000000 
165.000000 -143.000000 231.000000 
165.000000 -165.000000 253.000000 
143.000000 -143.000000 253.000000 
165.000000 -143.000000 253.000000 
99.000000 -121.000000 231.000000 
121.000000 -121.000000 231.000000 
99.000000 -99.000000 231.000000 
121.000000 -99.000000 231.000000 
143.000000 -121.000000 231.000000 
165.000000 -121.000000 231.000000 
143.000000 -99.000000 231.000000 
143.000000 -121.000000 253.000000 
165.000000 -99.000000 231.000000 
165.000000 -121.000000 253.000000 
165.000000 -99.000000 253.000000 
77.000000 -77.000000 187.000000 
77.000000 -55.000000 187.000000 
11.000000 -33.000000 187.000000 
11.000000 -11.000000 187.000000 
11.000000 -33.000000 209.000000 
11.000000 -33.000000 231.000000 
11.000000 -33.000000 253.000000 
99.000000 -77.000000 187.000000 
121.000000 -77.000000 187.000000 
99.000000 -55.000000 187.000000 
99.000000 -77.000000 209.000000 
121.000000 -55.000000 187.000000 
121.000000 -77.000000 209.000000 
143.000000 -77.000000 209.000000 
99.000000 -33.000000 187.000000 
121.000000 -77.000000 231.000000 
143.000000 -77.000000 231.000000 
165.000000 -77.000000 231.000000 
11.000000 -55.000000 275.000000 
11.000000 -77.000000 297.000000 
11.000000 -55.000000 297.000000 
11.000000 -33.000000 275.000000 
11.000000 -11.000000 275.000000 
11.000000 -33.000000 297.000000 
33.000000 -33.000000 297.000000 
11.000000 -11.000000 297.000000 
33.000000 -11.000000 297.000000 
11.000000 -77.000000 319.000000 
11.000000 -55.000000 319.000000 
11.000000 -77.000000 341.000000 
33.000000 -55.000000 319.000000 
33.000000 -77.000000 341.000000 
11.000000 -55.000000 341.000000 
33.000000 -55.000000 341.000000 
55.000000 -55.000000 341.000000 
11.000000 -33.000000 319.000000 
33.000000 -33.000000 319.000000 
11.000000 -11.000000 319.000000 
11.000000 -33.000000 341.000000 
33.000000 -11.000000 319.000000 
33.000000 -33.000000 341.000000 
11.000000 -11.000000 341.000000 
33.000000 -11.000000 341.000000 
55.000000 -33.000000 341.000000 
187.000000 -143.000000 231.000000 
187.000000 -165.000000 253.000000 
209.000000 -165.000000 253.000000 
187.000000 -143.000000 253.000000 
209.000000 -143.000000 253.000000 
231.000000 -165.000000 253.000000 
231.000000 -143.000000 253.000000 
187.000000 -121.000000 231.000000 
209.000000 -121.000000 231.000000 
187.000000 -99.000000 231.000000 
187.000000 -121.000000 253.000000 
209.000000 -121.000000 253.000000 
187.000000 -99.000000 253.000000 
209.000000 -99.000000 253.000000 
231.000000 -121.000000 253.000000 
231.000000 -99.000000 253.000000 
297.000000 -165.000000 253.000000 
297.000000 -143.000000 253.000000 
319.000000 -165.000000 253.000000 
209.000000 -77.000000 231.000000 
187.000000 -165.000000 275.000000 
209.000000 -165.000000 275.000000 
209.000000 -143.000000 275.000000 
231.000000 -165.000000 275.000000 
253.000000 -165.000000 275.000000 
231.000000 -143.000000 275.000000 
253.000000 -143.000000 275.000000 
231.000000 -121.000000 275.000000 
253.000000 -121.000000 275.000000 
275.000000 -165.000000 275.000000 
297.000000 -165.000000 275.000000 
275.000000 -143.000000 275.000000 
297.000000 -143.000000 275.000000 
319.000000 -165.000000 275.000000 
341.000000 -165.000000 275.000000 
319.000000 -143.000000 275.000000 
275.000000 -121.000000 275.000000 
297.000000 -121.000000 275.000000 
319.000000 -121.000000 275.000000 
495.000000 -297.000000 77.000000 
429.000000 -275.000000 165.000000 
473.000000 -297.000000 121.000000 
473.000000 -275.000000 121.000000 
495.000000 -297.000000 99.000000 
495.000000 -297.000000 121.000000 
473.000000 -297.000000 143.000000 
451.000000 -275.000000 143.000000 
451.000000 -297.000000 165.000000 
473.000000 -275.000000 143.000000 
473.000000 -297.000000 165.000000 
451.000000 -275.000000 165.000000 
473.000000 -275.000000 165.000000 
495.000000 -297.000000 143.000000 
429.000000 -297.000000 187.000000 
429.000000 -275.000000 187.000000 
429.000000 -297.000000 209.000000 
429.000000 -275.000000 209.000000 
363.000000 -275.000000 253.000000 
385.000000 -275.000000 253.000000 
429.000000 -297.000000 231.000000 
407.000000 -275.000000 231.000000 
429.000000 -275.000000 231.000000 
407.000000 -275.000000 253.000000 
429.000000 -275.000000 253.000000 
451.000000 -297.000000 187.000000 
451.000000 -275.000000 187.000000 
473.000000 -275.000000 187.000000 
451.000000 -275.000000 209.000000 
429.000000 -253.000000 187.000000 
407.000000 -253.000000 209.000000 
429.000000 -253.000000 209.000000 
407.000000 -231.000000 209.000000 
429.000000 -231.000000 209.000000 
363.000000 -253.000000 253.000000 
385.000000 -253.000000 253.000000 
363.000000 -231.000000 253.000000 
385.000000 -231.000000 253.000000 
407.000000 -253.000000 231.000000 
429.000000 -253.000000 231.000000 
407.000000 -231.000000 231.000000 
407.000000 -253.000000 253.000000 
363.000000 -209.000000 253.000000 
385.000000 -209.000000 253.000000 
451.000000 -253.000000 187.000000 
451.000000 -253.000000 209.000000 
363.000000 -253.000000 275.000000 
385.000000 -253.000000 275.000000 
363.000000 -231.000000 275.000000 
385.000000 -231.000000 275.000000 
363.000000 -209.000000 275.000000 
385.000000 -209.000000 275.000000 
363.000000 -187.000000 275.000000 
363.000000 -209.000000 297.000000 
33.000000 -99.000000 363.000000 
33.000000 -99.000000 385.000000 
55.000000 -99.000000 363.000000 
55.000000 -99.000000 385.000000 
11.000000 -99.000000 407.000000 
11.000000 -121.000000 429.000000 
33.000000 -99.000000 407.000000 
33.000000 -121.000000 429.000000 
11.000000 -99.000000 429.000000 
33.000000 -99.000000 429.000000 
55.000000 -99.000000 407.000000 
55.000000 -99.000000 429.000000 
77.000000 -99.000000 429.000000 
11.000000 -77.000000 363.000000 
33.000000 -77.000000 363.000000 
11.000000 -55.000000 363.000000 
11.000000 -77.000000 385.000000 
33.000000 -55.000000 363.000000 
33.000000 -77.000000 385.000000 
11.000000 -55.000000 385.000000 
33.000000 -55.000000 385.000000 
55.000000 -77.000000 363.000000 
55.000000 -55.000000 363.000000 
55.000000 -77.000000 385.000000 
77.000000 -55.000000 363.000000 
77.000000 -77.000000 385.000000 
55.000000 -55.000000 385.000000 
77.000000 -55.000000 385.000000 
11.000000 -33.000000 363.000000 
33.000000 -33.000000 363.000000 
11.000000 -11.000000 363.000000 
11.000000 -33.000000 385.000000 
33.000000 -11.000000 363.000000 
33.000000 -33.000000 385.000000 
11.000000 -11.000000 385.000000 
33.000000 -11.000000 385.000000 
11.000000 -77.000000 407.000000 
33.000000 -77.000000 407.000000 
11.000000 -55.000000 407.000000 
11.000000 -77.000000 429.000000 
33.000000 -55.000000 407.000000 
33.000000 -77.000000 429.000000 
11.000000 -55.000000 429.000000 
33.000000 -55.000000 429.000000 
55.000000 -33.000000 363.000000 
55.000000 -11.000000 363.000000 
55.000000 -33.000000 385.000000 
77.000000 -33.000000 385.000000 
55.000000 -11.000000 385.000000 
55.000000 -77.000000 407.000000 
77.000000 -77.000000 407.000000 
55.000000 -55.000000 407.000000 
55.000000 -77.000000 429.000000 
77.000000 -55.000000 407.000000 
77.000000 -77.000000 429.000000 
55.000000 -55.000000 429.000000 
77.000000 -55.000000 429.000000 
11.000000 -33.000000 407.000000 
33.000000 -33.000000 407.000000 
11.000000 -11.000000 407.000000 
11.000000 -33.000000 429.000000 
33.000000 -11.000000 407.000000 
33.000000 -33.000000 429.000000 
11.000000 -11.000000 429.000000 
33.000000 -11.000000 429.000000 
55.000000 -33.000000 407.000000 
77.000000 -33.000000 407.000000 
55.000000 -11.000000 407.000000 
55.000000 -33.000000 429.000000 
77.000000 -33.000000 429.000000 
55.000000 -11.000000 429.000000 
11.000000 -143.000000 451.000000 
33.000000 -143.000000 451.000000 
11.000000 -143.000000 473.000000 
33.000000 -143.000000 473.000000 
55.000000 -143.000000 451.000000 
55.000000 -143.000000 473.000000 
77.000000 -143.000000 473.000000 
11.000000 -121.000000 451.000000 
33.000000 -121.000000 451.000000 
11.000000 -99.000000 451.000000 
11.000000 -121.000000 473.000000 
33.000000 -99.000000 451.000000 
33.000000 -121.000000 473.000000 
11.000000 -99.000000 473.000000 
33.000000 -99.000000 473.000000 
11.000000 -143.000000 495.000000 
33.000000 -143.000000 495.000000 
11.000000 -143.000000 517.000000 
33.000000 -143.000000 517.000000 
55.000000 -121.000000 451.000000 
77.000000 -121.000000 451.000000 
55.000000 -99.000000 451.000000 
55.000000 -121.000000 473.000000 
77.000000 -99.000000 451.000000 
77.000000 -121.000000 473.000000 
77.000000 -99.000000 473.000000 
55.000000 -143.000000 495.000000 
77.000000 -143.000000 495.000000 
77.000000 -165.000000 517.000000 
55.000000 -143.000000 517.000000 
11.000000 -121.000000 495.000000 
33.000000 -121.000000 495.000000 
11.000000 -99.000000 495.000000 
11.000000 -121.000000 517.000000 
33.000000 -99.000000 495.000000 
55.000000 -121.000000 495.000000 
77.000000 -121.000000 495.000000 
55.000000 -99.000000 495.000000 
55.000000 -121.000000 517.000000 
77.000000 -99.000000 495.000000 
77.000000 -121.000000 517.000000 
55.000000 -99.000000 517.000000 
77.000000 -99.000000 517.000000 
99.000000 -143.000000 473.000000 
99.000000 -121.000000 451.000000 
99.000000 -99.000000 451.000000 
99.000000 -121.000000 473.000000 
121.000000 -99.000000 451.000000 
121.000000 -121.000000 473.000000 
99.000000 -99.000000 473.000000 
121.000000 -99.000000 473.000000 
99.000000 -143.000000 495.000000 
99.000000 -165.000000 517.000000 
121.000000 -143.000000 495.000000 
121.000000 -165.000000 517.000000 
99.000000 -143.000000 517.000000 
121.000000 -143.000000 517.000000 
143.000000 -99.000000 473.000000 
143.000000 -165.000000 517.000000 
143.000000 -143.000000 517.000000 
165.000000 -143.000000 517.000000 
99.000000 -121.000000 495.000000 
121.000000 -121.000000 495.000000 
99.000000 -99.000000 495.000000 
99.000000 -121.000000 517.000000 
121.000000 -99.000000 495.000000 
121.000000 -121.000000 517.000000 
99.000000 -99.000000 517.000000 
121.000000 -99.000000 517.000000 
143.000000 -121.000000 495.000000 
143.000000 -99.000000 495.000000 
143.000000 -121.000000 517.000000 
165.000000 -121.000000 517.000000 
143.000000 -99.000000 517.000000 
165.000000 -99.000000 517.000000 
11.000000 -77.000000 451.000000 
33.000000 -77.000000 451.000000 
11.000000 -55.000000 451.000000 
11.000000 -77.000000 473.000000 
33.000000 -55.000000 451.000000 
33.000000 -77.000000 473.000000 
11.000000 -55.000000 473.000000 
33.000000 -55.000000 473.000000 
55.000000 -77.000000 451.000000 
77.000000 -77.000000 451.000000 
55.000000 -55.000000 451.000000 
55.000000 -77.000000 473.000000 
77.000000 -55.000000 451.000000 
77.000000 -77.000000 473.000000 
55.000000 -55.000000 473.000000 
77.000000 -55.000000 473.000000 
11.000000 -33.000000 451.000000 
33.000000 -33.000000 451.000000 
11.000000 -11.000000 451.000000 
11.000000 -33.000000 473.000000 
33.000000 -11.000000 451.000000 
33.000000 -33.000000 473.000000 
11.000000 -11.000000 473.000000 
33.000000 -11.000000 473.000000 
33.000000 -77.000000 495.000000 
11.000000 -55.000000 495.000000 
33.000000 -55.000000 495.000000 
11.000000 -55.000000 517.000000 
55.000000 -33.000000 451.000000 
77.000000 -33.000000 451.000000 
55.000000 -11.000000 451.000000 
55.000000 -33.000000 473.000000 
77.000000 -11.000000 451.000000 
55.000000 -11.000000 473.000000 
77.000000 -11.000000 473.000000 
55.000000 -77.000000 495.000000 
77.000000 -77.000000 495.000000 
55.000000 -55.000000 495.000000 
55.000000 -77.000000 517.000000 
77.000000 -55.000000 495.000000 
77.000000 -77.000000 517.000000 
55.000000 -55.000000 517.000000 
77.000000 -55.000000 517.000000 
11.000000 -33.000000 495.000000 
11.000000 -11.000000 495.000000 
11.000000 -33.000000 517.000000 
11.000000 -11.000000 517.000000 
55.000000 -33.000000 495.000000 
77.000000 -33.000000 495.000000 
55.000000 -11.000000 495.000000 
55.000000 -33.000000 517.000000 
77.000000 -11.000000 495.000000 
77.000000 -33.000000 517.000000 
55.000000 -11.000000 517.000000 
77.000000 -11.000000 517.000000 
99.000000 -77.000000 451.000000 
121.000000 -77.000000 451.000000 
99.000000 -55.000000 451.000000 
99.000000 -77.000000 473.000000 
121.000000 -55.000000 451.000000 
121.000000 -77.000000 473.000000 
99.000000 -55.000000 473.000000 
121.000000 -55.000000 473.000000 
143.000000 -77.000000 473.000000 
99.000000 -33.000000 451.000000 
99.000000 -33.000000 473.000000 
99.000000 -77.000000 495.000000 
121.000000 -77.000000 495.000000 
99.000000 -55.000000 495.000000 
121.000000 -55.000000 495.000000 
121.000000 -77.000000 517.000000 
99.000000 -55.000000 517.000000 
121.000000 -55.000000 517.000000 
143.000000 -77.000000 495.000000 
143.000000 -55.000000 495.000000 
143.000000 -77.000000 517.000000 
165.000000 -77.000000 517.000000 
143.000000 -55.000000 517.000000 
99.000000 -33.000000 495.000000 
121.000000 -33.000000 495.000000 
99.000000 -11.000000 495.000000 
99.000000 -33.000000 517.000000 
99.000000 -11.000000 517.000000 
143.000000 -187.000000 539.000000 
165.000000 -187.000000 539.000000 
165.000000 -187.000000 561.000000 
99.000000 -187.000000 583.000000 
121.000000 -187.000000 583.000000 
121.000000 -187.000000 605.000000 
143.000000 -209.000000 583.000000 
165.000000 -209.000000 583.000000 
143.000000 -209.000000 605.000000 
165.000000 -187.000000 583.000000 
165.000000 -209.000000 605.000000 
143.000000 -187.000000 605.000000 
165.000000 -187.000000 605.000000 
187.000000 -187.000000 539.000000 
187.000000 -187.000000 561.000000 
209.000000 -187.000000 561.000000 
231.000000 -187.000000 561.000000 
253.000000 -231.000000 605.000000 
187.000000 -209.000000 583.000000 
187.000000 -187.000000 583.000000 
187.000000 -209.000000 605.000000 
209.000000 -187.000000 583.000000 
209.000000 -209.000000 605.000000 
187.000000 -187.000000 605.000000 
209.000000 -187.000000 605.000000 
231.000000 -209.000000 583.000000 
231.000000 -187.000000 583.000000 
231.000000 -209.000000 605.000000 
253.000000 -209.000000 605.000000 
231.000000 -187.000000 605.000000 
253.000000 -187.000000 605.000000 
275.000000 -253.000000 605.000000 
297.000000 -253.000000 605.000000 
275.000000 -231.000000 605.000000 
297.000000 -231.000000 605.000000 
319.000000 -253.000000 605.000000 
341.000000 -253.000000 605.000000 
319.000000 -231.000000 605.000000 
341.000000 -231.000000 605.000000 
275.000000 -209.000000 605.000000 
297.000000 -209.000000 605.000000 
275.000000 -187.000000 605.000000 
297.000000 -187.000000 605.000000 
319.000000 -209.000000 605.000000 
319.000000 -187.000000 605.000000 
297.000000 -275.000000 627.000000 
297.000000 -275.000000 649.000000 
319.000000 -275.000000 627.000000 
341.000000 -275.000000 627.000000 
319.000000 -275.000000 649.000000 
341.000000 -275.000000 649.000000 
319.000000 -275.000000 671.000000 
341.000000 -275.000000 671.000000 
253.000000 -253.000000 627.000000 
231.000000 -231.000000 627.000000 
253.000000 -231.000000 627.000000 
253.000000 -253.000000 649.000000 
253.000000 -231.000000 649.000000 
209.000000 -209.000000 627.000000 
187.000000 -187.000000 627.000000 
209.000000 -187.000000 627.000000 
209.000000 -187.000000 649.000000 
231.000000 -209.000000 627.000000 
253.000000 -209.000000 627.000000 
231.000000 -187.000000 627.000000 
231.000000 -209.000000 649.000000 
253.000000 -187.000000 627.000000 
231.000000 -187.000000 649.000000 
253.000000 -187.000000 649.000000 
253.000000 -209.000000 671.000000 
253.000000 -187.000000 671.000000 
253.000000 -187.000000 693.000000 
275.000000 -253.000000 627.000000 
297.000000 -253.000000 627.000000 
275.000000 -231.000000 627.000000 
297.000000 -231.000000 627.000000 
319.000000 -253.000000 627.000000 
