-44.000000 -60.000000 548.000000 
-36.000000 -60.000000 548.000000 
-44.000000 -52.000000 548.000000 
-44.000000 -60.000000 556.000000 
-36.000000 -52.000000 548.000000 
-36.000000 -60.000000 556.000000 
-44.000000 -52.000000 556.000000 
-36.000000 -52.000000 556.000000 
-52.000000 -44.000000 548.000000 
-60.000000 -44.000000 556.000000 
-52.000000 -36.000000 548.000000 
-52.000000 -44.000000 556.000000 
-60.000000 -36.000000 556.000000 
-52.000000 -36.000000 556.000000 
-52.000000 -60.000000 564.000000 
-60.000000 -52.000000 564.000000 
-60.000000 -60.000000 572.000000 
-52.000000 -52.000000 564.000000 
-52.000000 -60.000000 572.000000 
-60.000000 -52.000000 572.000000 
-52.000000 -52.000000 572.000000 
-44.000000 -44.000000 548.000000 
-36.000000 -44.000000 548.000000 
-44.000000 -36.000000 548.000000 
-44.000000 -44.000000 556.000000 
-36.000000 -36.000000 548.000000 
-36.000000 -44.000000 556.000000 
-44.000000 -36.000000 556.000000 
-36.000000 -36.000000 556.000000 
-44.000000 -60.000000 564.000000 
-36.000000 -60.000000 564.000000 
-44.000000 -52.000000 564.000000 
-44.000000 -60.000000 572.000000 
-36.000000 -52.000000 564.000000 
-36.000000 -60.000000 572.000000 
-44.000000 -52.000000 572.000000 
-36.000000 -52.000000 572.000000 
-60.000000 -44.000000 564.000000 
-52.000000 -44.000000 564.000000 
-60.000000 -36.000000 564.000000 
-60.000000 -44.000000 572.000000 
-52.000000 -36.000000 564.000000 
-52.000000 -44.000000 572.000000 
-60.000000 -36.000000 572.000000 
-52.000000 -36.000000 572.000000 
-44.000000 -44.000000 564.000000 
-36.000000 -44.000000 564.000000 
-44.000000 -36.000000 564.000000 
-44.000000 -44.000000 572.000000 
-36.000000 -36.000000 564.000000 
-36.000000 -44.000000 572.000000 
-44.000000 -36.000000 572.000000 
-36.000000 -36.000000 572.000000 
-28.000000 -28.000000 516.000000 
-20.000000 -28.000000 516.000000 
-28.000000 -20.000000 516.000000 
-28.000000 -28.000000 524.000000 
-20.000000 -20.000000 516.000000 
-20.000000 -28.000000 524.000000 
-28.000000 -20.000000 524.000000 
-20.000000 -20.000000 524.000000 
-12.000000 -28.000000 516.000000 
-4.000000 -28.000000 516.000000 
-12.000000 -20.000000 516.000000 
-12.000000 -28.000000 524.000000 
-4.000000 -20.000000 516.000000 
-4.000000 -28.000000 524.000000 
-12.000000 -20.000000 524.000000 
-4.000000 -20.000000 524.000000 
-28.000000 -12.000000 516.000000 
-20.000000 -12.000000 516.000000 
-28.000000 -4.000000 516.000000 
-28.000000 -12.000000 524.000000 
-20.000000 -4.000000 516.000000 
-20.000000 -12.000000 524.000000 
-28.000000 -4.000000 524.000000 
-20.000000 -4.000000 524.000000 
-28.000000 -28.000000 532.000000 
-20.000000 -28.000000 532.000000 
-28.000000 -20.000000 532.000000 
-28.000000 -28.000000 540.000000 
-20.000000 -20.000000 532.000000 
-20.000000 -28.000000 540.000000 
-28.000000 -20.000000 540.000000 
-20.000000 -20.000000 540.000000 
-12.000000 -12.000000 516.000000 
-4.000000 -12.000000 516.000000 
-12.000000 -4.000000 516.000000 
-12.000000 -12.000000 524.000000 
-4.000000 -4.000000 516.000000 
-4.000000 -12.000000 524.000000 
-12.000000 -4.000000 524.000000 
-4.000000 -4.000000 524.000000 
-12.000000 -28.000000 532.000000 
-4.000000 -28.000000 532.000000 
-12.000000 -20.000000 532.000000 
-12.000000 -28.000000 540.000000 
-4.000000 -20.000000 532.000000 
-4.000000 -28.000000 540.000000 
-12.000000 -20.000000 540.000000 
-4.000000 -20.000000 540.000000 
-28.000000 -12.000000 532.000000 
-20.000000 -12.000000 532.000000 
-28.000000 -4.000000 532.000000 
-28.000000 -12.000000 540.000000 
-20.000000 -4.000000 532.000000 
-20.000000 -12.000000 540.000000 
-28.000000 -4.000000 540.000000 
-20.000000 -4.000000 540.000000 
-12.000000 -12.000000 532.000000 
-4.000000 -12.000000 532.000000 
-12.000000 -4.000000 532.000000 
-12.000000 -12.000000 540.000000 
-4.000000 -4.000000 532.000000 
-4.000000 -12.000000 540.000000 
-12.000000 -4.000000 540.000000 
-4.000000 -4.000000 540.000000 
-28.000000 -60.000000 548.000000 
-20.000000 -60.000000 548.000000 
-28.000000 -52.000000 548.000000 
-28.000000 -60.000000 556.000000 
-20.000000 -52.000000 548.000000 
-20.000000 -60.000000 556.000000 
-28.000000 -52.000000 556.000000 
-20.000000 -52.000000 556.000000 
-12.000000 -60.000000 548.000000 
-4.000000 -60.000000 548.000000 
-12.000000 -52.000000 548.000000 
-12.000000 -60.000000 556.000000 
-4.000000 -52.000000 548.000000 
-4.000000 -60.000000 556.000000 
-12.000000 -52.000000 556.000000 
-4.000000 -52.000000 556.000000 
-28.000000 -44.000000 548.000000 
-20.000000 -44.000000 548.000000 
-28.000000 -36.000000 548.000000 
-28.000000 -44.000000 556.000000 
-20.000000 -36.000000 548.000000 
-20.000000 -44.000000 556.000000 
-28.000000 -36.000000 556.000000 
-20.000000 -36.000000 556.000000 
-28.000000 -60.000000 564.000000 
-20.000000 -60.000000 564.000000 
-28.000000 -52.000000 564.000000 
-28.000000 -60.000000 572.000000 
-20.000000 -52.000000 564.000000 
-20.000000 -60.000000 572.000000 
-28.000000 -52.000000 572.000000 
-20.000000 -52.000000 572.000000 
-12.000000 -44.000000 548.000000 
-4.000000 -44.000000 548.000000 
-12.000000 -36.000000 548.000000 
-12.000000 -44.000000 556.000000 
-4.000000 -36.000000 548.000000 
-4.000000 -44.000000 556.000000 
-12.000000 -36.000000 556.000000 
-4.000000 -36.000000 556.000000 
-12.000000 -60.000000 564.000000 
-4.000000 -60.000000 564.000000 
-12.000000 -52.000000 564.000000 
-12.000000 -60.000000 572.000000 
-4.000000 -52.000000 564.000000 
-4.000000 -60.000000 572.000000 
-12.000000 -52.000000 572.000000 
-4.000000 -52.000000 572.000000 
-28.000000 -44.000000 564.000000 
-20.000000 -44.000000 564.000000 
-28.000000 -36.000000 564.000000 
-28.000000 -44.000000 572.000000 
-20.000000 -36.000000 564.000000 
-20.000000 -44.000000 572.000000 
-28.000000 -36.000000 572.000000 
-12.000000 -44.000000 564.000000 
-4.000000 -44.000000 564.000000 
-12.000000 -36.000000 564.000000 
-12.000000 -44.000000 572.000000 
-4.000000 -36.000000 564.000000 
-4.000000 -44.000000 572.000000 
-12.000000 -36.000000 572.000000 
-4.000000 -36.000000 572.000000 
-52.000000 -28.000000 548.000000 
-60.000000 -20.000000 548.000000 
-60.000000 -28.000000 556.000000 
-52.000000 -20.000000 548.000000 
-52.000000 -28.000000 556.000000 
-60.000000 -20.000000 556.000000 
-52.000000 -20.000000 556.000000 
-44.000000 -28.000000 548.000000 
-36.000000 -28.000000 548.000000 
-44.000000 -20.000000 548.000000 
-44.000000 -28.000000 556.000000 
-36.000000 -20.000000 548.000000 
-36.000000 -28.000000 556.000000 
-44.000000 -20.000000 556.000000 
-36.000000 -20.000000 556.000000 
-52.000000 -12.000000 548.000000 
-60.000000 -12.000000 556.000000 
-52.000000 -4.000000 548.000000 
-52.000000 -12.000000 556.000000 
-60.000000 -4.000000 556.000000 
-52.000000 -4.000000 556.000000 
-60.000000 -28.000000 564.000000 
-52.000000 -28.000000 564.000000 
-60.000000 -20.000000 564.000000 
-60.000000 -28.000000 572.000000 
-52.000000 -20.000000 564.000000 
-52.000000 -28.000000 572.000000 
-60.000000 -20.000000 572.000000 
-52.000000 -20.000000 572.000000 
-44.000000 -12.000000 548.000000 
-36.000000 -12.000000 548.000000 
-44.000000 -4.000000 548.000000 
-44.000000 -12.000000 556.000000 
-36.000000 -4.000000 548.000000 
-36.000000 -12.000000 556.000000 
-44.000000 -4.000000 556.000000 
-36.000000 -4.000000 556.000000 
-44.000000 -28.000000 564.000000 
-36.000000 -28.000000 564.000000 
-44.000000 -20.000000 564.000000 
-44.000000 -28.000000 572.000000 
-36.000000 -20.000000 564.000000 
-36.000000 -28.000000 572.000000 
-44.000000 -20.000000 572.000000 
-36.000000 -20.000000 572.000000 
-60.000000 -12.000000 564.000000 
-52.000000 -12.000000 564.000000 
-60.000000 -4.000000 564.000000 
-52.000000 -4.000000 564.000000 
-60.000000 -4.000000 572.000000 
-52.000000 -4.000000 572.000000 
-44.000000 -12.000000 564.000000 
-36.000000 -12.000000 564.000000 
-44.000000 -4.000000 564.000000 
-36.000000 -4.000000 564.000000 
-44.000000 -4.000000 572.000000 
-36.000000 -4.000000 572.000000 
-28.000000 -28.000000 548.000000 
-20.000000 -28.000000 548.000000 
-28.000000 -20.000000 548.000000 
-28.000000 -28.000000 556.000000 
-20.000000 -20.000000 548.000000 
-20.000000 -28.000000 556.000000 
-28.000000 -20.000000 556.000000 
-20.000000 -20.000000 556.000000 
-12.000000 -28.000000 548.000000 
-4.000000 -28.000000 548.000000 
-12.000000 -20.000000 548.000000 
-12.000000 -28.000000 556.000000 
-4.000000 -20.000000 548.000000 
-4.000000 -28.000000 556.000000 
-12.000000 -20.000000 556.000000 
-4.000000 -20.000000 556.000000 
-28.000000 -12.000000 548.000000 
-20.000000 -12.000000 548.000000 
-28.000000 -4.000000 548.000000 
-28.000000 -12.000000 556.000000 
-20.000000 -4.000000 548.000000 
-20.000000 -12.000000 556.000000 
-28.000000 -4.000000 556.000000 
-20.000000 -4.000000 556.000000 
-28.000000 -28.000000 564.000000 
-20.000000 -28.000000 564.000000 
-28.000000 -20.000000 564.000000 
-28.000000 -28.000000 572.000000 
-20.000000 -20.000000 564.000000 
-20.000000 -28.000000 572.000000 
-28.000000 -20.000000 572.000000 
-20.000000 -20.000000 572.000000 
-12.000000 -12.000000 548.000000 
-4.000000 -12.000000 548.000000 
-12.000000 -4.000000 548.000000 
-12.000000 -12.000000 556.000000 
-4.000000 -4.000000 548.000000 
-4.000000 -12.000000 556.000000 
-12.000000 -4.000000 556.000000 
-4.000000 -4.000000 556.000000 
-12.000000 -28.000000 564.000000 
-4.000000 -28.000000 564.000000 
-12.000000 -20.000000 564.000000 
-12.000000 -28.000000 572.000000 
-4.000000 -20.000000 564.000000 
-4.000000 -28.000000 572.000000 
-12.000000 -20.000000 572.000000 
-4.000000 -20.000000 572.000000 
-28.000000 -12.000000 564.000000 
-20.000000 -12.000000 564.000000 
-28.000000 -4.000000 564.000000 
-20.000000 -4.000000 564.000000 
-28.000000 -4.000000 572.000000 
-20.000000 -4.000000 572.000000 
-12.000000 -12.000000 564.000000 
-4.000000 -12.000000 564.000000 
-12.000000 -4.000000 564.000000 
-4.000000 -4.000000 564.000000 
-12.000000 -4.000000 572.000000 
-4.000000 -4.000000 572.000000 
-60.000000 -116.000000 580.000000 
-36.000000 -116.000000 588.000000 
-60.000000 -108.000000 580.000000 
-52.000000 -124.000000 596.000000 
-60.000000 -124.000000 604.000000 
-52.000000 -124.000000 604.000000 
-60.000000 -116.000000 604.000000 
-36.000000 -108.000000 580.000000 
-36.000000 -100.000000 580.000000 
-36.000000 -108.000000 588.000000 
-44.000000 -100.000000 588.000000 
-36.000000 -100.000000 588.000000 
-36.000000 -124.000000 596.000000 
-44.000000 -124.000000 604.000000 
-36.000000 -116.000000 596.000000 
-36.000000 -124.000000 604.000000 
-28.000000 -116.000000 580.000000 
-20.000000 -116.000000 580.000000 
-28.000000 -116.000000 588.000000 
-20.000000 -116.000000 588.000000 
-12.000000 -116.000000 580.000000 
-4.000000 -116.000000 580.000000 
-12.000000 -116.000000 588.000000 
-28.000000 -108.000000 580.000000 
-20.000000 -108.000000 580.000000 
-28.000000 -100.000000 580.000000 
-28.000000 -108.000000 588.000000 
-20.000000 -100.000000 580.000000 
-20.000000 -108.000000 588.000000 
-28.000000 -100.000000 588.000000 
-28.000000 -124.000000 596.000000 
-12.000000 -108.000000 580.000000 
-4.000000 -108.000000 580.000000 
-12.000000 -100.000000 580.000000 
-4.000000 -100.000000 580.000000 
-4.000000 -100.000000 588.000000 
-4.000000 -116.000000 604.000000 
-20.000000 -100.000000 596.000000 
-20.000000 -108.000000 604.000000 
-28.000000 -100.000000 604.000000 
-20.000000 -100.000000 604.000000 
-4.000000 -108.000000 596.000000 
-12.000000 -100.000000 596.000000 
-12.000000 -108.000000 604.000000 
-4.000000 -100.000000 596.000000 
-4.000000 -108.000000 604.000000 
-12.000000 -100.000000 604.000000 
-4.000000 -100.000000 604.000000 
-52.000000 -84.000000 580.000000 
-52.000000 -92.000000 588.000000 
-52.000000 -84.000000 588.000000 
-44.000000 -92.000000 580.000000 
-36.000000 -92.000000 580.000000 
-44.000000 -84.000000 580.000000 
-44.000000 -92.000000 588.000000 
-36.000000 -84.000000 580.000000 
-36.000000 -92.000000 588.000000 
-44.000000 -84.000000 588.000000 
-52.000000 -76.000000 580.000000 
-60.000000 -68.000000 580.000000 
-60.000000 -76.000000 588.000000 
-52.000000 -68.000000 580.000000 
-52.000000 -76.000000 588.000000 
-60.000000 -68.000000 588.000000 
-52.000000 -68.000000 588.000000 
-52.000000 -84.000000 604.000000 
-44.000000 -76.000000 580.000000 
-36.000000 -76.000000 580.000000 
-44.000000 -68.000000 580.000000 
-44.000000 -76.000000 588.000000 
-36.000000 -68.000000 580.000000 
-36.000000 -76.000000 588.000000 
-44.000000 -68.000000 588.000000 
-36.000000 -68.000000 588.000000 
-44.000000 -84.000000 596.000000 
-36.000000 -84.000000 596.000000 
-36.000000 -92.000000 604.000000 
-44.000000 -84.000000 604.000000 
-36.000000 -84.000000 604.000000 
-52.000000 -76.000000 596.000000 
-60.000000 -68.000000 596.000000 
-60.000000 -76.000000 604.000000 
-52.000000 -68.000000 596.000000 
-52.000000 -76.000000 604.000000 
-60.000000 -68.000000 604.000000 
-52.000000 -68.000000 604.000000 
-44.000000 -76.000000 596.000000 
-36.000000 -76.000000 596.000000 
-44.000000 -68.000000 596.000000 
-44.000000 -76.000000 604.000000 
-36.000000 -68.000000 596.000000 
-36.000000 -76.000000 604.000000 
-44.000000 -68.000000 604.000000 
-36.000000 -68.000000 604.000000 
-52.000000 -124.000000 612.000000 
-60.000000 -116.000000 612.000000 
-60.000000 -124.000000 620.000000 
-52.000000 -116.000000 612.000000 
-52.000000 -124.000000 620.000000 
-60.000000 -116.000000 620.000000 
-44.000000 -124.000000 612.000000 
-36.000000 -116.000000 620.000000 
-52.000000 -108.000000 620.000000 
-60.000000 -100.000000 620.000000 
-52.000000 -100.000000 620.000000 
-60.000000 -124.000000 628.000000 
-52.000000 -124.000000 628.000000 
-60.000000 -124.000000 636.000000 
-52.000000 -116.000000 628.000000 
-52.000000 -124.000000 636.000000 
-60.000000 -116.000000 636.000000 
-52.000000 -116.000000 636.000000 
-36.000000 -108.000000 612.000000 
-44.000000 -100.000000 612.000000 
-44.000000 -108.000000 620.000000 
-36.000000 -100.000000 612.000000 
-36.000000 -108.000000 620.000000 
-44.000000 -124.000000 628.000000 
-36.000000 -124.000000 628.000000 
-44.000000 -116.000000 628.000000 
-44.000000 -124.000000 636.000000 
-36.000000 -116.000000 628.000000 
-36.000000 -124.000000 636.000000 
-44.000000 -116.000000 636.000000 
-36.000000 -116.000000 636.000000 
-60.000000 -108.000000 628.000000 
-52.000000 -108.000000 628.000000 
-60.000000 -100.000000 628.000000 
-60.000000 -108.000000 636.000000 
-52.000000 -100.000000 628.000000 
-52.000000 -108.000000 636.000000 
-60.000000 -100.000000 636.000000 
-52.000000 -100.000000 636.000000 
-44.000000 -100.000000 628.000000 
-44.000000 -108.000000 636.000000 
-36.000000 -100.000000 628.000000 
-36.000000 -108.000000 636.000000 
-44.000000 -100.000000 636.000000 
-36.000000 -100.000000 636.000000 
-28.000000 -92.000000 580.000000 
-20.000000 -92.000000 580.000000 
-28.000000 -84.000000 580.000000 
-20.000000 -84.000000 580.000000 
-20.000000 -92.000000 588.000000 
-28.000000 -84.000000 588.000000 
-20.000000 -84.000000 588.000000 
-12.000000 -92.000000 580.000000 
-4.000000 -92.000000 580.000000 
-12.000000 -84.000000 580.000000 
-12.000000 -92.000000 588.000000 
-4.000000 -84.000000 580.000000 
-4.000000 -92.000000 588.000000 
-12.000000 -84.000000 588.000000 
-4.000000 -84.000000 588.000000 
-28.000000 -76.000000 580.000000 
-20.000000 -76.000000 580.000000 
-28.000000 -68.000000 580.000000 
-28.000000 -76.000000 588.000000 
-20.000000 -68.000000 580.000000 
-20.000000 -76.000000 588.000000 
-28.000000 -68.000000 588.000000 
-20.000000 -68.000000 588.000000 
-28.000000 -92.000000 596.000000 
-20.000000 -92.000000 596.000000 
-28.000000 -84.000000 596.000000 
-28.000000 -92.000000 604.000000 
-20.000000 -84.000000 596.000000 
-20.000000 -92.000000 604.000000 
-28.000000 -84.000000 604.000000 
-20.000000 -84.000000 604.000000 
-12.000000 -76.000000 580.000000 
-4.000000 -76.000000 580.000000 
-12.000000 -68.000000 580.000000 
-12.000000 -76.000000 588.000000 
-12.000000 -68.000000 588.000000 
-12.000000 -92.000000 596.000000 
-4.000000 -92.000000 596.000000 
-12.000000 -84.000000 596.000000 
-12.000000 -92.000000 604.000000 
-12.000000 -84.000000 604.000000 
-28.000000 -76.000000 596.000000 
-20.000000 -76.000000 596.000000 
-28.000000 -68.000000 596.000000 
-28.000000 -76.000000 604.000000 
-20.000000 -76.000000 604.000000 
-4.000000 -68.000000 596.000000 
-4.000000 -68.000000 604.000000 
-28.000000 -124.000000 620.000000 
-20.000000 -116.000000 612.000000 
-20.000000 -124.000000 620.000000 
-28.000000 -116.000000 620.000000 
-20.000000 -116.000000 620.000000 
-4.000000 -124.000000 612.000000 
-4.000000 -116.000000 612.000000 
-4.000000 -124.000000 620.000000 
-4.000000 -116.000000 620.000000 
-28.000000 -108.000000 612.000000 
-20.000000 -108.000000 612.000000 
-28.000000 -100.000000 612.000000 
-28.000000 -108.000000 620.000000 
-20.000000 -100.000000 612.000000 
-20.000000 -108.000000 620.000000 
-28.000000 -100.000000 620.000000 
-20.000000 -100.000000 620.000000 
-28.000000 -124.000000 628.000000 
-20.000000 -124.000000 628.000000 
-28.000000 -124.000000 636.000000 
-28.000000 -116.000000 636.000000 
-4.000000 -108.000000 612.000000 
-4.000000 -108.000000 620.000000 
-4.000000 -116.000000 628.000000 
-4.000000 -124.000000 636.000000 
-4.000000 -116.000000 636.000000 
-28.000000 -108.000000 628.000000 
-20.000000 -108.000000 628.000000 
-28.000000 -100.000000 628.000000 
-28.000000 -108.000000 636.000000 
-20.000000 -100.000000 628.000000 
-28.000000 -100.000000 636.000000 
-4.000000 -108.000000 628.000000 
-4.000000 -108.000000 636.000000 
-52.000000 -92.000000 612.000000 
-60.000000 -84.000000 612.000000 
-52.000000 -84.000000 612.000000 
-60.000000 -84.000000 620.000000 
-52.000000 -84.000000 620.000000 
-44.000000 -92.000000 612.000000 
-36.000000 -92.000000 612.000000 
-44.000000 -84.000000 612.000000 
-44.000000 -92.000000 620.000000 
-36.000000 -84.000000 612.000000 
-36.000000 -92.000000 620.000000 
-44.000000 -84.000000 620.000000 
-36.000000 -84.000000 620.000000 
-60.000000 -76.000000 612.000000 
-52.000000 -76.000000 612.000000 
-60.000000 -68.000000 612.000000 
-60.000000 -76.000000 620.000000 
-52.000000 -68.000000 612.000000 
-52.000000 -76.000000 620.000000 
-60.000000 -68.000000 620.000000 
-52.000000 -68.000000 620.000000 
-60.000000 -92.000000 628.000000 
-52.000000 -92.000000 628.000000 
-60.000000 -84.000000 628.000000 
-60.000000 -92.000000 636.000000 
-52.000000 -84.000000 628.000000 
-52.000000 -92.000000 636.000000 
-60.000000 -84.000000 636.000000 
-52.000000 -84.000000 636.000000 
-44.000000 -76.000000 612.000000 
-36.000000 -76.000000 612.000000 
-44.000000 -68.000000 612.000000 
-44.000000 -76.000000 620.000000 
-36.000000 -68.000000 612.000000 
-36.000000 -76.000000 620.000000 
-44.000000 -68.000000 620.000000 
-44.000000 -92.000000 628.000000 
-36.000000 -92.000000 628.000000 
-44.000000 -84.000000 628.000000 
-44.000000 -92.000000 636.000000 
-36.000000 -84.000000 628.000000 
-36.000000 -92.000000 636.000000 
-44.000000 -84.000000 636.000000 
-36.000000 -84.000000 636.000000 
-60.000000 -76.000000 628.000000 
-52.000000 -76.000000 628.000000 
-60.000000 -68.000000 628.000000 
-60.000000 -76.000000 636.000000 
-52.000000 -68.000000 628.000000 
-52.000000 -76.000000 636.000000 
-60.000000 -68.000000 636.000000 
-52.000000 -68.000000 636.000000 
-44.000000 -76.000000 628.000000 
-36.000000 -76.000000 628.000000 
-44.000000 -68.000000 628.000000 
-44.000000 -76.000000 636.000000 
-36.000000 -76.000000 636.000000 
-28.000000 -92.000000 612.000000 
-20.000000 -92.000000 612.000000 
-28.000000 -84.000000 612.000000 
-28.000000 -92.000000 620.000000 
-20.000000 -84.000000 612.000000 
-20.000000 -92.000000 620.000000 
-28.000000 -84.000000 620.000000 
-20.000000 -84.000000 620.000000 
-28.000000 -76.000000 612.000000 
-28.000000 -76.000000 620.000000 
-28.000000 -92.000000 628.000000 
-20.000000 -92.000000 628.000000 
-28.000000 -84.000000 628.000000 
-28.000000 -92.000000 636.000000 
-20.000000 -84.000000 628.000000 
-28.000000 -84.000000 636.000000 
-4.000000 -68.000000 612.000000 
-4.000000 -76.000000 620.000000 
-4.000000 -68.000000 620.000000 
-4.000000 -76.000000 628.000000 
-4.000000 -68.000000 628.000000 
-4.000000 -76.000000 636.000000 
-4.000000 -68.000000 636.000000 
-124.000000 -60.000000 580.000000 
-116.000000 -60.000000 580.000000 
-124.000000 -52.000000 580.000000 
-124.000000 -60.000000 588.000000 
-116.000000 -52.000000 580.000000 
-116.000000 -60.000000 588.000000 
-124.000000 -52.000000 588.000000 
-116.000000 -52.000000 588.000000 
-108.000000 -60.000000 580.000000 
-108.000000 -52.000000 580.000000 
-108.000000 -60.000000 588.000000 
-108.000000 -52.000000 588.000000 
-124.000000 -44.000000 580.000000 
-116.000000 -44.000000 580.000000 
-124.000000 -36.000000 580.000000 
-124.000000 -44.000000 588.000000 
-116.000000 -36.000000 580.000000 
-116.000000 -44.000000 588.000000 
-124.000000 -36.000000 588.000000 
-116.000000 -36.000000 588.000000 
-124.000000 -60.000000 596.000000 
-124.000000 -52.000000 596.000000 
-108.000000 -44.000000 580.000000 
-108.000000 -36.000000 580.000000 
-108.000000 -44.000000 588.000000 
-68.000000 -52.000000 580.000000 
-68.000000 -60.000000 588.000000 
-76.000000 -52.000000 588.000000 
-68.000000 -52.000000 588.000000 
-84.000000 -36.000000 588.000000 
-84.000000 -52.000000 596.000000 
-84.000000 -60.000000 604.000000 
-92.000000 -52.000000 604.000000 
-84.000000 -52.000000 604.000000 
-76.000000 -44.000000 580.000000 
-68.000000 -44.000000 580.000000 
-76.000000 -36.000000 580.000000 
-76.000000 -44.000000 588.000000 
-68.000000 -36.000000 580.000000 
-68.000000 -44.000000 588.000000 
-76.000000 -36.000000 588.000000 
-68.000000 -36.000000 588.000000 
-76.000000 -60.000000 596.000000 
-68.000000 -60.000000 596.000000 
-76.000000 -52.000000 596.000000 
-76.000000 -60.000000 604.000000 
-68.000000 -52.000000 596.000000 
-68.000000 -60.000000 604.000000 
-76.000000 -52.000000 604.000000 
-68.000000 -52.000000 604.000000 
-84.000000 -44.000000 596.000000 
-92.000000 -44.000000 604.000000 
-84.000000 -36.000000 596.000000 
-84.000000 -44.000000 604.000000 
-84.000000 -36.000000 604.000000 
-76.000000 -44.000000 596.000000 
-68.000000 -44.000000 596.000000 
-76.000000 -36.000000 596.000000 
-76.000000 -44.000000 604.000000 
-124.000000 -28.000000 580.000000 
-116.000000 -28.000000 580.000000 
-124.000000 -28.000000 588.000000 
-116.000000 -20.000000 580.000000 
-116.000000 -28.000000 588.000000 
-124.000000 -20.000000 588.000000 
-116.000000 -20.000000 588.000000 
-108.000000 -28.000000 580.000000 
-124.000000 -28.000000 596.000000 
-100.000000 -60.000000 620.000000 
-100.000000 -60.000000 628.000000 
-100.000000 -60.000000 636.000000 
-84.000000 -28.000000 588.000000 
-84.000000 -20.000000 588.000000 
-76.000000 -28.000000 580.000000 
-68.000000 -28.000000 580.000000 
-76.000000 -20.000000 580.000000 
-76.000000 -28.000000 588.000000 
-68.000000 -20.000000 580.000000 
-68.000000 -20.000000 588.000000 
-68.000000 -28.000000 596.000000 
-76.000000 -20.000000 596.000000 
-68.000000 -20.000000 596.000000 
-92.000000 -60.000000 612.000000 
-84.000000 -60.000000 612.000000 
-92.000000 -52.000000 612.000000 
-92.000000 -60.000000 620.000000 
-84.000000 -52.000000 612.000000 
-84.000000 -60.000000 620.000000 
-92.000000 -52.000000 620.000000 
-84.000000 -52.000000 620.000000 
-76.000000 -60.000000 612.000000 
-68.000000 -60.000000 612.000000 
-76.000000 -52.000000 612.000000 
-76.000000 -60.000000 620.000000 
-68.000000 -52.000000 612.000000 
-68.000000 -60.000000 620.000000 
-76.000000 -52.000000 620.000000 
-68.000000 -52.000000 620.000000 
-92.000000 -44.000000 612.000000 
-84.000000 -44.000000 612.000000 
-92.000000 -44.000000 620.000000 
-84.000000 -44.000000 620.000000 
-92.000000 -60.000000 628.000000 
-84.000000 -60.000000 628.000000 
-92.000000 -52.000000 628.000000 
-92.000000 -60.000000 636.000000 
-84.000000 -52.000000 628.000000 
-84.000000 -60.000000 636.000000 
-92.000000 -52.000000 636.000000 
-84.000000 -52.000000 636.000000 
-68.000000 -36.000000 612.000000 
-76.000000 -60.000000 628.000000 
-68.000000 -60.000000 628.000000 
-76.000000 -52.000000 628.000000 
-76.000000 -60.000000 636.000000 
-68.000000 -60.000000 636.000000 
-76.000000 -52.000000 636.000000 
-92.000000 -44.000000 628.000000 
-84.000000 -44.000000 628.000000 
-60.000000 -60.000000 580.000000 
-52.000000 -60.000000 580.000000 
-60.000000 -52.000000 580.000000 
-60.000000 -60.000000 588.000000 
-52.000000 -52.000000 580.000000 
-52.000000 -60.000000 588.000000 
-60.000000 -52.000000 588.000000 
-52.000000 -52.000000 588.000000 
-44.000000 -60.000000 580.000000 
-36.000000 -60.000000 580.000000 
-44.000000 -52.000000 580.000000 
-44.000000 -60.000000 588.000000 
-36.000000 -52.000000 580.000000 
-36.000000 -60.000000 588.000000 
-44.000000 -52.000000 588.000000 
-36.000000 -52.000000 588.000000 
-60.000000 -44.000000 580.000000 
-52.000000 -44.000000 580.000000 
-60.000000 -36.000000 580.000000 
-60.000000 -44.000000 588.000000 
-52.000000 -36.000000 580.000000 
-52.000000 -44.000000 588.000000 
-60.000000 -36.000000 588.000000 
-52.000000 -36.000000 588.000000 
-60.000000 -60.000000 596.000000 
-52.000000 -60.000000 596.000000 
-60.000000 -52.000000 596.000000 
-60.000000 -60.000000 604.000000 
-52.000000 -52.000000 596.000000 
-52.000000 -60.000000 604.000000 
-60.000000 -52.000000 604.000000 
-44.000000 -44.000000 580.000000 
-36.000000 -44.000000 580.000000 
-36.000000 -36.000000 580.000000 
-36.000000 -44.000000 588.000000 
-44.000000 -36.000000 588.000000 
-36.000000 -36.000000 588.000000 
-44.000000 -60.000000 596.000000 
-36.000000 -60.000000 596.000000 
-36.000000 -52.000000 604.000000 
-60.000000 -44.000000 596.000000 
-52.000000 -36.000000 596.000000 
-52.000000 -44.000000 604.000000 
-60.000000 -36.000000 604.000000 
-52.000000 -36.000000 604.000000 
-44.000000 -44.000000 596.000000 
-36.000000 -44.000000 596.000000 
-44.000000 -36.000000 596.000000 
-44.000000 -44.000000 604.000000 
-36.000000 -36.000000 596.000000 
-36.000000 -44.000000 604.000000 
-44.000000 -36.000000 604.000000 
-28.000000 -60.000000 580.000000 
-20.000000 -60.000000 580.000000 
-28.000000 -52.000000 580.000000 
-28.000000 -60.000000 588.000000 
-12.000000 -60.000000 580.000000 
-4.000000 -60.000000 580.000000 
-12.000000 -52.000000 580.000000 
-4.000000 -52.000000 580.000000 
-4.000000 -60.000000 588.000000 
-12.000000 -52.000000 588.000000 
-4.000000 -52.000000 588.000000 
-28.000000 -44.000000 580.000000 
-28.000000 -36.000000 580.000000 
-28.000000 -44.000000 588.000000 
-20.000000 -36.000000 580.000000 
-20.000000 -44.000000 588.000000 
-20.000000 -36.000000 588.000000 
-20.000000 -60.000000 596.000000 
-28.000000 -52.000000 596.000000 
-12.000000 -44.000000 580.000000 
-4.000000 -44.000000 580.000000 
-12.000000 -36.000000 580.000000 
-12.000000 -44.000000 588.000000 
-4.000000 -36.000000 580.000000 
-4.000000 -44.000000 588.000000 
-12.000000 -36.000000 588.000000 
-4.000000 -36.000000 588.000000 
-12.000000 -60.000000 596.000000 
-4.000000 -60.000000 596.000000 
-12.000000 -52.000000 596.000000 
-12.000000 -60.000000 604.000000 
-4.000000 -52.000000 596.000000 
-4.000000 -60.000000 604.000000 
-12.000000 -52.000000 604.000000 
-4.000000 -52.000000 604.000000 
-20.000000 -44.000000 596.000000 
-20.000000 -36.000000 596.000000 
-20.000000 -44.000000 604.000000 
-28.000000 -36.000000 604.000000 
-20.000000 -36.000000 604.000000 
-12.000000 -44.000000 596.000000 
-4.000000 -44.000000 596.000000 
-12.000000 -36.000000 596.000000 
-12.000000 -44.000000 604.000000 
-4.000000 -36.000000 596.000000 
-4.000000 -44.000000 604.000000 
-12.000000 -36.000000 604.000000 
-4.000000 -36.000000 604.000000 
-60.000000 -28.000000 580.000000 
-52.000000 -28.000000 580.000000 
-60.000000 -20.000000 580.000000 
-60.000000 -28.000000 588.000000 
-52.000000 -20.000000 580.000000 
-52.000000 -28.000000 588.000000 
-60.000000 -20.000000 588.000000 
-52.000000 -20.000000 588.000000 
-44.000000 -28.000000 580.000000 
-36.000000 -28.000000 580.000000 
-44.000000 -20.000000 580.000000 
-44.000000 -28.000000 588.000000 
-44.000000 -20.000000 588.000000 
-60.000000 -28.000000 596.000000 
-52.000000 -28.000000 596.000000 
-60.000000 -20.000000 596.000000 
-52.000000 -20.000000 596.000000 
-44.000000 -28.000000 596.000000 
-60.000000 -60.000000 612.000000 
-52.000000 -60.000000 612.000000 
-60.000000 -60.000000 620.000000 
-36.000000 -52.000000 612.000000 
-44.000000 -52.000000 620.000000 
-36.000000 -52.000000 620.000000 
-52.000000 -44.000000 612.000000 
-60.000000 -36.000000 612.000000 
-52.000000 -36.000000 612.000000 
-52.000000 -44.000000 620.000000 
-60.000000 -60.000000 628.000000 
-60.000000 -60.000000 636.000000 
-52.000000 -52.000000 636.000000 
-44.000000 -44.000000 612.000000 
-36.000000 -44.000000 612.000000 
-44.000000 -36.000000 612.000000 
-44.000000 -44.000000 620.000000 
-36.000000 -60.000000 628.000000 
-44.000000 -52.000000 628.000000 
-36.000000 -60.000000 636.000000 
-44.000000 -52.000000 636.000000 
-60.000000 -44.000000 628.000000 
-52.000000 -44.000000 628.000000 
-44.000000 -44.000000 628.000000 
-20.000000 -28.000000 580.000000 
-28.000000 -20.000000 580.000000 
-28.000000 -28.000000 588.000000 
-20.000000 -20.000000 580.000000 
-20.000000 -28.000000 588.000000 
-12.000000 -28.000000 580.000000 
-4.000000 -28.000000 580.000000 
-12.000000 -20.000000 580.000000 
-12.000000 -28.000000 588.000000 
-4.000000 -20.000000 580.000000 
-4.000000 -28.000000 588.000000 
-28.000000 -28.000000 596.000000 
-20.000000 -28.000000 596.000000 
-28.000000 -20.000000 596.000000 
-12.000000 -28.000000 596.000000 
-4.000000 -28.000000 596.000000 
-20.000000 -52.000000 620.000000 
-4.000000 -60.000000 612.000000 
-4.000000 -52.000000 612.000000 
-4.000000 -60.000000 620.000000 
-4.000000 -52.000000 620.000000 
-20.000000 -44.000000 612.000000 
-28.000000 -36.000000 612.000000 
-20.000000 -36.000000 612.000000 
-20.000000 -44.000000 620.000000 
-20.000000 -52.000000 628.000000 
-4.000000 -44.000000 612.000000 
-4.000000 -36.000000 612.000000 
-4.000000 -44.000000 620.000000 
-4.000000 -36.000000 620.000000 
-4.000000 -60.000000 628.000000 
-4.000000 -52.000000 628.000000 
-4.000000 -60.000000 636.000000 
-4.000000 -52.000000 636.000000 
-20.000000 -44.000000 628.000000 
-4.000000 -44.000000 628.000000 
-124.000000 -244.000000 652.000000 
-116.000000 -236.000000 644.000000 
-124.000000 -236.000000 652.000000 
-116.000000 -236.000000 652.000000 
-124.000000 -244.000000 660.000000 
-116.000000 -244.000000 660.000000 
-124.000000 -244.000000 668.000000 
-116.000000 -244.000000 668.000000 
-124.000000 -236.000000 660.000000 
-116.000000 -236.000000 660.000000 
-124.000000 -236.000000 668.000000 
-116.000000 -236.000000 668.000000 
-124.000000 -244.000000 676.000000 
-116.000000 -244.000000 676.000000 
-124.000000 -244.000000 684.000000 
-116.000000 -244.000000 684.000000 
-124.000000 -236.000000 676.000000 
-116.000000 -236.000000 676.000000 
-124.000000 -236.000000 684.000000 
-116.000000 -236.000000 684.000000 
-124.000000 -244.000000 692.000000 
-116.000000 -244.000000 692.000000 
-124.000000 -244.000000 700.000000 
-116.000000 -244.000000 700.000000 
-124.000000 -236.000000 692.000000 
-116.000000 -236.000000 692.000000 
-124.000000 -228.000000 692.000000 
-124.000000 -236.000000 700.000000 
-116.000000 -236.000000 700.000000 
-124.000000 -228.000000 700.000000 
-108.000000 -236.000000 692.000000 
-108.000000 -236.000000 700.000000 
-124.000000 -188.000000 652.000000 
-116.000000 -188.000000 652.000000 
-124.000000 -180.000000 652.000000 
-100.000000 -132.000000 668.000000 
-84.000000 -148.000000 652.000000 
-68.000000 -156.000000 644.000000 
-76.000000 -156.000000 652.000000 
-68.000000 -156.000000 652.000000 
-76.000000 -148.000000 652.000000 
-68.000000 -148.000000 652.000000 
-84.000000 -132.000000 644.000000 
-84.000000 -140.000000 652.000000 
-92.000000 -132.000000 652.000000 
-84.000000 -132.000000 652.000000 
-76.000000 -140.000000 644.000000 
-68.000000 -140.000000 644.000000 
-76.000000 -132.000000 644.000000 
-76.000000 -140.000000 652.000000 
-68.000000 -132.000000 644.000000 
-68.000000 -140.000000 652.000000 
-76.000000 -132.000000 652.000000 
-68.000000 -132.000000 652.000000 
-84.000000 -140.000000 668.000000 
-76.000000 -140.000000 660.000000 
-68.000000 -140.000000 660.000000 
-76.000000 -132.000000 660.000000 
-76.000000 -140.000000 668.000000 
-68.000000 -132.000000 660.000000 
-68.000000 -140.000000 668.000000 
-68.000000 -132.000000 668.000000 
-68.000000 -164.000000 684.000000 
-100.000000 -148.000000 700.000000 
-116.000000 -132.000000 692.000000 
-124.000000 -132.000000 700.000000 
-116.000000 -132.000000 700.000000 
-108.000000 -132.000000 692.000000 
-108.000000 -140.000000 700.000000 
-100.000000 -140.000000 700.000000 
-108.000000 -132.000000 700.000000 
-100.000000 -132.000000 700.000000 
-92.000000 -148.000000 700.000000 
-92.000000 -140.000000 700.000000 
-84.000000 -140.000000 700.000000 
-92.000000 -132.000000 700.000000 
-84.000000 -132.000000 700.000000 
-76.000000 -140.000000 700.000000 
-76.000000 -132.000000 700.000000 
-68.000000 -132.000000 700.000000 
-116.000000 -244.000000 708.000000 
-124.000000 -236.000000 708.000000 
-116.000000 -236.000000 708.000000 
-124.000000 -228.000000 708.000000 
-124.000000 -236.000000 716.000000 
-116.000000 -228.000000 708.000000 
-116.000000 -236.000000 716.000000 
-124.000000 -228.000000 716.000000 
-116.000000 -228.000000 716.000000 
-108.000000 -236.000000 708.000000 
-108.000000 -236.000000 716.000000 
-108.000000 -228.000000 716.000000 
-116.000000 -236.000000 724.000000 
-124.000000 -228.000000 724.000000 
-116.000000 -228.000000 724.000000 
-108.000000 -228.000000 724.000000 
-100.000000 -228.000000 724.000000 
-124.000000 -220.000000 716.000000 
-124.000000 -220.000000 724.000000 
-116.000000 -220.000000 724.000000 
-124.000000 -220.000000 732.000000 
-116.000000 -220.000000 732.000000 
-124.000000 -212.000000 732.000000 
-116.000000 -212.000000 732.000000 
-108.000000 -220.000000 724.000000 
-108.000000 -220.000000 732.000000 
-100.000000 -220.000000 732.000000 
-108.000000 -212.000000 732.000000 
-100.000000 -212.000000 732.000000 
-124.000000 -204.000000 732.000000 
-116.000000 -204.000000 732.000000 
-100.000000 -204.000000 732.000000 
-108.000000 -196.000000 732.000000 
-92.000000 -212.000000 732.000000 
-124.000000 -220.000000 740.000000 
-116.000000 -220.000000 740.000000 
-124.000000 -212.000000 740.000000 
-116.000000 -212.000000 740.000000 
-108.000000 -220.000000 740.000000 
-100.000000 -220.000000 740.000000 
-108.000000 -212.000000 740.000000 
-100.000000 -212.000000 740.000000 
-124.000000 -204.000000 740.000000 
-116.000000 -204.000000 740.000000 
-124.000000 -196.000000 740.000000 
-116.000000 -196.000000 740.000000 
-108.000000 -204.000000 740.000000 
-100.000000 -204.000000 740.000000 
-108.000000 -196.000000 740.000000 
-100.000000 -196.000000 740.000000 
-92.000000 -212.000000 740.000000 
-92.000000 -204.000000 740.000000 
-92.000000 -196.000000 740.000000 
-84.000000 -196.000000 740.000000 
-44.000000 -164.000000 668.000000 
-28.000000 -180.000000 644.000000 
-4.000000 -172.000000 644.000000 
-60.000000 -148.000000 652.000000 
-44.000000 -156.000000 652.000000 
-44.000000 -148.000000 652.000000 
-36.000000 -148.000000 652.000000 
-60.000000 -140.000000 644.000000 
-52.000000 -140.000000 644.000000 
-60.000000 -132.000000 644.000000 
-60.000000 -140.000000 652.000000 
-52.000000 -132.000000 644.000000 
-60.000000 -132.000000 652.000000 
-52.000000 -132.000000 652.000000 
-36.000000 -140.000000 644.000000 
-36.000000 -132.000000 644.000000 
-36.000000 -140.000000 652.000000 
-60.000000 -140.000000 660.000000 
-60.000000 -132.000000 660.000000 
-60.000000 -140.000000 668.000000 
-52.000000 -132.000000 660.000000 
-60.000000 -132.000000 668.000000 
-28.000000 -140.000000 644.000000 
-28.000000 -132.000000 644.000000 
-28.000000 -140.000000 652.000000 
-28.000000 -132.000000 652.000000 
-4.000000 -132.000000 644.000000 
-116.000000 -180.000000 732.000000 
-108.000000 -188.000000 732.000000 
-100.000000 -188.000000 732.000000 
-108.000000 -180.000000 732.000000 
-100.000000 -180.000000 732.000000 
-124.000000 -172.000000 732.000000 
-116.000000 -164.000000 724.000000 
-116.000000 -172.000000 732.000000 
-124.000000 -164.000000 732.000000 
-116.000000 -164.000000 732.000000 
-108.000000 -164.000000 724.000000 
-108.000000 -172.000000 732.000000 
-100.000000 -164.000000 724.000000 
-100.000000 -172.000000 732.000000 
-108.000000 -164.000000 732.000000 
-100.000000 -164.000000 732.000000 
-84.000000 -188.000000 732.000000 
-92.000000 -180.000000 732.000000 
-84.000000 -180.000000 732.000000 
-76.000000 -188.000000 732.000000 
-76.000000 -180.000000 732.000000 
-92.000000 -164.000000 724.000000 
-92.000000 -172.000000 732.000000 
-84.000000 -164.000000 724.000000 
-84.000000 -172.000000 732.000000 
-92.000000 -164.000000 732.000000 
-84.000000 -164.000000 732.000000 
-76.000000 -172.000000 732.000000 
-68.000000 -172.000000 732.000000 
-76.000000 -164.000000 732.000000 
-68.000000 -164.000000 732.000000 
-124.000000 -148.000000 716.000000 
-116.000000 -148.000000 716.000000 
-108.000000 -148.000000 708.000000 
-100.000000 -148.000000 708.000000 
-108.000000 -148.000000 716.000000 
-100.000000 -148.000000 716.000000 
-124.000000 -140.000000 708.000000 
-116.000000 -140.000000 708.000000 
-124.000000 -132.000000 708.000000 
-124.000000 -140.000000 716.000000 
-116.000000 -132.000000 708.000000 
-116.000000 -140.000000 716.000000 
-124.000000 -132.000000 716.000000 
-116.000000 -132.000000 716.000000 
-124.000000 -156.000000 724.000000 
-116.000000 -156.000000 724.000000 
-124.000000 -148.000000 724.000000 
-124.000000 -156.000000 732.000000 
-116.000000 -148.000000 724.000000 
-116.000000 -156.000000 732.000000 
-124.000000 -148.000000 732.000000 
-116.000000 -148.000000 732.000000 
-108.000000 -140.000000 708.000000 
-100.000000 -140.000000 708.000000 
-108.000000 -132.000000 708.000000 
-108.000000 -140.000000 716.000000 
-100.000000 -132.000000 708.000000 
-100.000000 -140.000000 716.000000 
-108.000000 -132.000000 716.000000 
-100.000000 -132.000000 716.000000 
-108.000000 -156.000000 724.000000 
-100.000000 -156.000000 724.000000 
-108.000000 -148.000000 724.000000 
-108.000000 -156.000000 732.000000 
-100.000000 -148.000000 724.000000 
-100.000000 -156.000000 732.000000 
-108.000000 -148.000000 732.000000 
-100.000000 -148.000000 732.000000 
-124.000000 -140.000000 724.000000 
-116.000000 -140.000000 724.000000 
-124.000000 -140.000000 732.000000 
-116.000000 -132.000000 724.000000 
-116.000000 -140.000000 732.000000 
-108.000000 -140.000000 724.000000 
-100.000000 -140.000000 724.000000 
-108.000000 -132.000000 724.000000 
-100.000000 -132.000000 724.000000 
-124.000000 -188.000000 740.000000 
-116.000000 -188.000000 740.000000 
-124.000000 -180.000000 740.000000 
-124.000000 -188.000000 748.000000 
-116.000000 -180.000000 740.000000 
-108.000000 -188.000000 740.000000 
-100.000000 -188.000000 740.000000 
-108.000000 -180.000000 740.000000 
-100.000000 -180.000000 740.000000 
-124.000000 -172.000000 740.000000 
-116.000000 -172.000000 740.000000 
-124.000000 -164.000000 740.000000 
-116.000000 -164.000000 740.000000 
-108.000000 -172.000000 740.000000 
-100.000000 -172.000000 740.000000 
-108.000000 -164.000000 740.000000 
-100.000000 -164.000000 740.000000 
-92.000000 -148.000000 708.000000 
-92.000000 -156.000000 716.000000 
-84.000000 -148.000000 708.000000 
-84.000000 -156.000000 716.000000 
-92.000000 -148.000000 716.000000 
-84.000000 -148.000000 716.000000 
-76.000000 -148.000000 716.000000 
-92.000000 -140.000000 708.000000 
-84.000000 -140.000000 708.000000 
-92.000000 -132.000000 708.000000 
-92.000000 -140.000000 716.000000 
-84.000000 -132.000000 708.000000 
-84.000000 -140.000000 716.000000 
-92.000000 -132.000000 716.000000 
-84.000000 -132.000000 716.000000 
-92.000000 -156.000000 724.000000 
-84.000000 -156.000000 724.000000 
-92.000000 -148.000000 724.000000 
-92.000000 -156.000000 732.000000 
-84.000000 -148.000000 724.000000 
-84.000000 -156.000000 732.000000 
-92.000000 -148.000000 732.000000 
-84.000000 -148.000000 732.000000 
-76.000000 -140.000000 708.000000 
-68.000000 -140.000000 708.000000 
-76.000000 -132.000000 708.000000 
-76.000000 -140.000000 716.000000 
-68.000000 -132.000000 708.000000 
-68.000000 -140.000000 716.000000 
-76.000000 -132.000000 716.000000 
-68.000000 -132.000000 716.000000 
-76.000000 -156.000000 724.000000 
-76.000000 -148.000000 724.000000 
-76.000000 -156.000000 732.000000 
-68.000000 -148.000000 724.000000 
-68.000000 -156.000000 732.000000 
-76.000000 -148.000000 732.000000 
-68.000000 -148.000000 732.000000 
-92.000000 -140.000000 724.000000 
-84.000000 -140.000000 724.000000 
-92.000000 -132.000000 724.000000 
-84.000000 -132.000000 724.000000 
-76.000000 -140.000000 724.000000 
-68.000000 -140.000000 724.000000 
-92.000000 -188.000000 740.000000 
-84.000000 -188.000000 740.000000 
-92.000000 -180.000000 740.000000 
-84.000000 -180.000000 740.000000 
-76.000000 -188.000000 740.000000 
-76.000000 -180.000000 740.000000 
-92.000000 -172.000000 740.000000 
-84.000000 -172.000000 740.000000 
-92.000000 -164.000000 740.000000 
-84.000000 -164.000000 740.000000 
-76.000000 -172.000000 740.000000 
-68.000000 -172.000000 740.000000 
-76.000000 -164.000000 740.000000 
-116.000000 -156.000000 740.000000 
-108.000000 -156.000000 740.000000 
-60.000000 -132.000000 708.000000 
-60.000000 -140.000000 716.000000 
-60.000000 -132.000000 716.000000 
-52.000000 -132.000000 716.000000 
-60.000000 -140.000000 724.000000 
-252.000000 -124.000000 668.000000 
-244.000000 -124.000000 668.000000 
-252.000000 -116.000000 668.000000 
-244.000000 -116.000000 668.000000 
-236.000000 -124.000000 668.000000 
-228.000000 -116.000000 660.000000 
-228.000000 -124.000000 668.000000 
-236.000000 -116.000000 668.000000 
-228.000000 -116.000000 668.000000 
-252.000000 -108.000000 668.000000 
-244.000000 -108.000000 668.000000 
-252.000000 -100.000000 668.000000 
-244.000000 -100.000000 668.000000 
-228.000000 -108.000000 660.000000 
-236.000000 -100.000000 660.000000 
-236.000000 -108.000000 668.000000 
-228.000000 -100.000000 660.000000 
-228.000000 -108.000000 668.000000 
-236.000000 -100.000000 668.000000 
-228.000000 -100.000000 668.000000 
-212.000000 -124.000000 652.000000 
-212.000000 -116.000000 652.000000 
-204.000000 -124.000000 644.000000 
-196.000000 -124.000000 644.000000 
-204.000000 -116.000000 644.000000 
-204.000000 -124.000000 652.000000 
-196.000000 -116.000000 644.000000 
-196.000000 -124.000000 652.000000 
-204.000000 -116.000000 652.000000 
-196.000000 -116.000000 652.000000 
-212.000000 -108.000000 652.000000 
-220.000000 -100.000000 652.000000 
-212.000000 -100.000000 652.000000 
-220.000000 -124.000000 660.000000 
-212.000000 -124.000000 660.000000 
-220.000000 -116.000000 660.000000 
-220.000000 -124.000000 668.000000 
-212.000000 -116.000000 660.000000 
-212.000000 -124.000000 668.000000 
-220.000000 -116.000000 668.000000 
-212.000000 -116.000000 668.000000 
-204.000000 -108.000000 644.000000 
-196.000000 -108.000000 644.000000 
-204.000000 -100.000000 644.000000 
-204.000000 -108.000000 652.000000 
-196.000000 -100.000000 644.000000 
-196.000000 -108.000000 652.000000 
-204.000000 -100.000000 652.000000 
-196.000000 -100.000000 652.000000 
-204.000000 -124.000000 660.000000 
-196.000000 -124.000000 660.000000 
-204.000000 -116.000000 660.000000 
-204.000000 -124.000000 668.000000 
-196.000000 -116.000000 660.000000 
-196.000000 -124.000000 668.000000 
-204.000000 -116.000000 668.000000 
-196.000000 -116.000000 668.000000 
-220.000000 -108.000000 660.000000 
-212.000000 -108.000000 660.000000 
-220.000000 -100.000000 660.000000 
-220.000000 -108.000000 668.000000 
-212.000000 -100.000000 660.000000 
-212.000000 -108.000000 668.000000 
-220.000000 -100.000000 668.000000 
-212.000000 -100.000000 668.000000 
-204.000000 -108.000000 660.000000 
-196.000000 -108.000000 660.000000 
-204.000000 -100.000000 660.000000 
-204.000000 -108.000000 668.000000 
-196.000000 -100.000000 660.000000 
-196.000000 -108.000000 668.000000 
-204.000000 -100.000000 668.000000 
-196.000000 -100.000000 668.000000 
-252.000000 -92.000000 668.000000 
-244.000000 -92.000000 668.000000 
-252.000000 -84.000000 668.000000 
-244.000000 -84.000000 668.000000 
-236.000000 -92.000000 660.000000 
-228.000000 -92.000000 660.000000 
-236.000000 -92.000000 668.000000 
-228.000000 -84.000000 660.000000 
-228.000000 -92.000000 668.000000 
-236.000000 -84.000000 668.000000 
-228.000000 -84.000000 668.000000 
-252.000000 -76.000000 668.000000 
-244.000000 -68.000000 660.000000 
-244.000000 -76.000000 668.000000 
-252.000000 -68.000000 668.000000 
-244.000000 -68.000000 668.000000 
-236.000000 -76.000000 660.000000 
-228.000000 -76.000000 660.000000 
-236.000000 -68.000000 660.000000 
-236.000000 -76.000000 668.000000 
-228.000000 -76.000000 668.000000 
-236.000000 -68.000000 668.000000 
-228.000000 -68.000000 668.000000 
-252.000000 -124.000000 676.000000 
-244.000000 -124.000000 676.000000 
-252.000000 -116.000000 676.000000 
-252.000000 -124.000000 684.000000 
-244.000000 -116.000000 676.000000 
-244.000000 -124.000000 684.000000 
-252.000000 -116.000000 684.000000 
-244.000000 -116.000000 684.000000 
-236.000000 -124.000000 676.000000 
-228.000000 -124.000000 676.000000 
-236.000000 -116.000000 676.000000 
-236.000000 -124.000000 684.000000 
-228.000000 -116.000000 676.000000 
-252.000000 -108.000000 676.000000 
-244.000000 -108.000000 676.000000 
-252.000000 -100.000000 676.000000 
-252.000000 -108.000000 684.000000 
-244.000000 -100.000000 676.000000 
-252.000000 -100.000000 684.000000 
-236.000000 -108.000000 676.000000 
-228.000000 -108.000000 676.000000 
-236.000000 -100.000000 676.000000 
-228.000000 -100.000000 676.000000 
-220.000000 -92.000000 652.000000 
-212.000000 -92.000000 652.000000 
-220.000000 -84.000000 652.000000 
-212.000000 -84.000000 652.000000 
-204.000000 -92.000000 644.000000 
-196.000000 -92.000000 644.000000 
-204.000000 -84.000000 644.000000 
-204.000000 -92.000000 652.000000 
-196.000000 -84.000000 644.000000 
-196.000000 -92.000000 652.000000 
-204.000000 -84.000000 652.000000 
-196.000000 -84.000000 652.000000 
-220.000000 -76.000000 652.000000 
-212.000000 -76.000000 652.000000 
-220.000000 -68.000000 652.000000 
-212.000000 -68.000000 652.000000 
-220.000000 -92.000000 660.000000 
-212.000000 -92.000000 660.000000 
-220.000000 -84.000000 660.000000 
-220.000000 -92.000000 668.000000 
-212.000000 -84.000000 660.000000 
-212.000000 -92.000000 668.000000 
-220.000000 -84.000000 668.000000 
-212.000000 -84.000000 668.000000 
-204.000000 -76.000000 644.000000 
-196.000000 -76.000000 644.000000 
-204.000000 -68.000000 644.000000 
-204.000000 -76.000000 652.000000 
-196.000000 -68.000000 644.000000 
-196.000000 -76.000000 652.000000 
-204.000000 -68.000000 652.000000 
-196.000000 -68.000000 652.000000 
-204.000000 -92.000000 660.000000 
-196.000000 -92.000000 660.000000 
-204.000000 -84.000000 660.000000 
-204.000000 -92.000000 668.000000 
-196.000000 -84.000000 660.000000 
-196.000000 -92.000000 668.000000 
-204.000000 -84.000000 668.000000 
-220.000000 -76.000000 660.000000 
-212.000000 -76.000000 660.000000 
-220.000000 -68.000000 660.000000 
-220.000000 -76.000000 668.000000 
-212.000000 -68.000000 660.000000 
-212.000000 -76.000000 668.000000 
-220.000000 -68.000000 668.000000 
-212.000000 -68.000000 668.000000 
-204.000000 -76.000000 660.000000 
-196.000000 -76.000000 660.000000 
-204.000000 -68.000000 660.000000 
-204.000000 -76.000000 668.000000 
-196.000000 -68.000000 660.000000 
-204.000000 -68.000000 668.000000 
-220.000000 -124.000000 676.000000 
-212.000000 -124.000000 676.000000 
