12.500000 -107.500000 682.500000 
17.500000 -107.500000 682.500000 
12.500000 -102.500000 682.500000 
12.500000 -107.500000 687.500000 
17.500000 -102.500000 682.500000 
17.500000 -107.500000 687.500000 
12.500000 -117.500000 692.500000 
17.500000 -117.500000 692.500000 
22.500000 -117.500000 682.500000 
27.500000 -117.500000 682.500000 
22.500000 -112.500000 682.500000 
22.500000 -117.500000 687.500000 
27.500000 -112.500000 682.500000 
27.500000 -117.500000 687.500000 
22.500000 -112.500000 687.500000 
27.500000 -112.500000 687.500000 
32.500000 -117.500000 682.500000 
37.500000 -117.500000 682.500000 
32.500000 -112.500000 682.500000 
32.500000 -117.500000 687.500000 
37.500000 -112.500000 682.500000 
37.500000 -117.500000 687.500000 
32.500000 -112.500000 687.500000 
37.500000 -112.500000 687.500000 
22.500000 -107.500000 682.500000 
27.500000 -107.500000 682.500000 
22.500000 -102.500000 682.500000 
22.500000 -107.500000 687.500000 
27.500000 -102.500000 682.500000 
27.500000 -107.500000 687.500000 
22.500000 -117.500000 692.500000 
27.500000 -117.500000 692.500000 
22.500000 -112.500000 692.500000 
27.500000 -112.500000 692.500000 
32.500000 -107.500000 682.500000 
37.500000 -107.500000 682.500000 
32.500000 -102.500000 682.500000 
32.500000 -107.500000 687.500000 
37.500000 -102.500000 682.500000 
37.500000 -107.500000 687.500000 
32.500000 -117.500000 692.500000 
37.500000 -117.500000 692.500000 
32.500000 -112.500000 692.500000 
37.500000 -112.500000 692.500000 
42.500000 -112.500000 682.500000 
42.500000 -117.500000 687.500000 
47.500000 -112.500000 682.500000 
42.500000 -112.500000 687.500000 
47.500000 -112.500000 687.500000 
52.500000 -112.500000 687.500000 
42.500000 -107.500000 682.500000 
47.500000 -107.500000 682.500000 
42.500000 -102.500000 682.500000 
42.500000 -107.500000 687.500000 
47.500000 -102.500000 682.500000 
47.500000 -107.500000 687.500000 
42.500000 -117.500000 692.500000 
47.500000 -117.500000 692.500000 
42.500000 -112.500000 692.500000 
47.500000 -112.500000 692.500000 
47.500000 -117.500000 697.500000 
52.500000 -107.500000 682.500000 
52.500000 -107.500000 687.500000 
52.500000 -117.500000 692.500000 
52.500000 -112.500000 692.500000 
2.500000 -77.500000 642.500000 
7.500000 -77.500000 642.500000 
2.500000 -72.500000 642.500000 
2.500000 -77.500000 647.500000 
7.500000 -72.500000 642.500000 
7.500000 -77.500000 647.500000 
2.500000 -72.500000 647.500000 
7.500000 -72.500000 647.500000 
12.500000 -77.500000 642.500000 
17.500000 -77.500000 642.500000 
12.500000 -72.500000 642.500000 
12.500000 -77.500000 647.500000 
17.500000 -72.500000 642.500000 
17.500000 -77.500000 647.500000 
12.500000 -72.500000 647.500000 
17.500000 -72.500000 647.500000 
2.500000 -67.500000 642.500000 
7.500000 -67.500000 642.500000 
7.500000 -62.500000 642.500000 
7.500000 -67.500000 647.500000 
2.500000 -77.500000 652.500000 
7.500000 -77.500000 652.500000 
2.500000 -72.500000 652.500000 
2.500000 -77.500000 657.500000 
7.500000 -72.500000 652.500000 
7.500000 -77.500000 657.500000 
7.500000 -72.500000 657.500000 
12.500000 -67.500000 642.500000 
17.500000 -67.500000 642.500000 
12.500000 -62.500000 642.500000 
12.500000 -67.500000 647.500000 
17.500000 -62.500000 642.500000 
12.500000 -77.500000 652.500000 
17.500000 -77.500000 652.500000 
12.500000 -72.500000 652.500000 
12.500000 -77.500000 657.500000 
17.500000 -72.500000 652.500000 
17.500000 -77.500000 657.500000 
12.500000 -72.500000 657.500000 
17.500000 -72.500000 657.500000 
22.500000 -77.500000 642.500000 
27.500000 -77.500000 642.500000 
22.500000 -72.500000 642.500000 
22.500000 -77.500000 647.500000 
27.500000 -72.500000 642.500000 
27.500000 -77.500000 647.500000 
22.500000 -72.500000 647.500000 
27.500000 -72.500000 647.500000 
32.500000 -77.500000 642.500000 
37.500000 -77.500000 642.500000 
32.500000 -72.500000 642.500000 
32.500000 -77.500000 647.500000 
37.500000 -72.500000 642.500000 
37.500000 -77.500000 647.500000 
32.500000 -72.500000 647.500000 
37.500000 -72.500000 647.500000 
22.500000 -67.500000 642.500000 
27.500000 -67.500000 642.500000 
22.500000 -62.500000 642.500000 
27.500000 -62.500000 642.500000 
22.500000 -77.500000 652.500000 
27.500000 -77.500000 652.500000 
22.500000 -72.500000 652.500000 
22.500000 -77.500000 657.500000 
27.500000 -72.500000 652.500000 
27.500000 -77.500000 657.500000 
22.500000 -72.500000 657.500000 
27.500000 -72.500000 657.500000 
32.500000 -67.500000 642.500000 
37.500000 -67.500000 642.500000 
32.500000 -62.500000 642.500000 
37.500000 -62.500000 642.500000 
32.500000 -77.500000 652.500000 
37.500000 -77.500000 652.500000 
32.500000 -72.500000 652.500000 
32.500000 -77.500000 657.500000 
37.500000 -72.500000 652.500000 
37.500000 -77.500000 657.500000 
32.500000 -72.500000 657.500000 
37.500000 -72.500000 657.500000 
7.500000 -57.500000 642.500000 
12.500000 -57.500000 642.500000 
17.500000 -57.500000 642.500000 
12.500000 -52.500000 642.500000 
17.500000 -52.500000 642.500000 
7.500000 -77.500000 662.500000 
12.500000 -77.500000 662.500000 
22.500000 -57.500000 642.500000 
27.500000 -57.500000 642.500000 
42.500000 -77.500000 642.500000 
47.500000 -77.500000 642.500000 
42.500000 -72.500000 642.500000 
42.500000 -77.500000 647.500000 
47.500000 -72.500000 642.500000 
47.500000 -77.500000 647.500000 
42.500000 -72.500000 647.500000 
47.500000 -72.500000 647.500000 
52.500000 -77.500000 642.500000 
52.500000 -72.500000 642.500000 
52.500000 -77.500000 647.500000 
52.500000 -72.500000 647.500000 
42.500000 -67.500000 642.500000 
42.500000 -77.500000 652.500000 
47.500000 -77.500000 652.500000 
42.500000 -72.500000 652.500000 
42.500000 -77.500000 657.500000 
47.500000 -72.500000 652.500000 
47.500000 -77.500000 657.500000 
42.500000 -72.500000 657.500000 
52.500000 -77.500000 652.500000 
52.500000 -77.500000 657.500000 
-2.500000 2.500000 187.500000 
-2.500000 2.500000 292.500000 
-2.500000 2.500000 297.500000 
-2.500000 2.500000 302.500000 
-2.500000 7.500000 302.500000 
-2.500000 2.500000 307.500000 
-2.500000 7.500000 307.500000 
-2.500000 12.500000 307.500000 
-7.500000 2.500000 312.500000 
-2.500000 2.500000 312.500000 
-7.500000 7.500000 312.500000 
-7.500000 2.500000 317.500000 
-2.500000 7.500000 312.500000 
-2.500000 2.500000 317.500000 
-7.500000 7.500000 317.500000 
-2.500000 7.500000 317.500000 
-7.500000 12.500000 312.500000 
-2.500000 12.500000 312.500000 
-7.500000 12.500000 317.500000 
-2.500000 12.500000 317.500000 
-7.500000 2.500000 322.500000 
-7.500000 7.500000 322.500000 
-2.500000 7.500000 322.500000 
-7.500000 12.500000 322.500000 
-2.500000 12.500000 322.500000 
-2.500000 2.500000 367.500000 
-2.500000 2.500000 372.500000 
-7.500000 2.500000 377.500000 
-2.500000 2.500000 377.500000 
-2.500000 7.500000 377.500000 
-2.500000 12.500000 377.500000 
-12.500000 2.500000 387.500000 
-7.500000 2.500000 382.500000 
-2.500000 2.500000 382.500000 
-7.500000 7.500000 382.500000 
-7.500000 2.500000 387.500000 
-2.500000 7.500000 382.500000 
-2.500000 2.500000 387.500000 
-7.500000 7.500000 387.500000 
-2.500000 7.500000 387.500000 
-12.500000 2.500000 392.500000 
-17.500000 2.500000 397.500000 
-12.500000 7.500000 392.500000 
-12.500000 2.500000 397.500000 
-12.500000 7.500000 397.500000 
-2.500000 12.500000 382.500000 
-7.500000 12.500000 387.500000 
-2.500000 12.500000 387.500000 
-2.500000 17.500000 387.500000 
-7.500000 2.500000 392.500000 
-2.500000 2.500000 392.500000 
-7.500000 7.500000 392.500000 
-7.500000 2.500000 397.500000 
-2.500000 7.500000 392.500000 
-2.500000 2.500000 397.500000 
-7.500000 7.500000 397.500000 
-2.500000 7.500000 397.500000 
-7.500000 12.500000 392.500000 
-2.500000 12.500000 392.500000 
-7.500000 17.500000 392.500000 
-7.500000 12.500000 397.500000 
-2.500000 17.500000 392.500000 
-2.500000 12.500000 397.500000 
-7.500000 17.500000 397.500000 
-2.500000 17.500000 397.500000 
-42.500000 2.500000 422.500000 
-42.500000 2.500000 427.500000 
-42.500000 2.500000 432.500000 
-42.500000 2.500000 437.500000 
-37.500000 2.500000 417.500000 
-32.500000 2.500000 417.500000 
-37.500000 7.500000 417.500000 
-32.500000 7.500000 417.500000 
-27.500000 2.500000 412.500000 
-22.500000 2.500000 412.500000 
-27.500000 7.500000 412.500000 
-27.500000 2.500000 417.500000 
-22.500000 7.500000 412.500000 
-22.500000 2.500000 417.500000 
-27.500000 7.500000 417.500000 
-22.500000 7.500000 417.500000 
-32.500000 12.500000 417.500000 
-32.500000 17.500000 417.500000 
-22.500000 12.500000 412.500000 
-27.500000 12.500000 417.500000 
-22.500000 12.500000 417.500000 
-27.500000 17.500000 417.500000 
-22.500000 17.500000 417.500000 
-17.500000 2.500000 402.500000 
-12.500000 2.500000 402.500000 
-17.500000 7.500000 402.500000 
-17.500000 2.500000 407.500000 
-12.500000 7.500000 402.500000 
-12.500000 2.500000 407.500000 
-17.500000 7.500000 407.500000 
-12.500000 7.500000 407.500000 
-7.500000 2.500000 402.500000 
-2.500000 2.500000 402.500000 
-7.500000 7.500000 402.500000 
-7.500000 2.500000 407.500000 
-2.500000 7.500000 402.500000 
-2.500000 2.500000 407.500000 
-7.500000 7.500000 407.500000 
-2.500000 7.500000 407.500000 
-12.500000 12.500000 402.500000 
-12.500000 12.500000 407.500000 
-12.500000 17.500000 407.500000 
-17.500000 2.500000 412.500000 
-17.500000 7.500000 412.500000 
-7.500000 12.500000 402.500000 
-2.500000 12.500000 402.500000 
-7.500000 17.500000 402.500000 
-7.500000 12.500000 407.500000 
-2.500000 17.500000 402.500000 
-2.500000 12.500000 407.500000 
-7.500000 17.500000 407.500000 
-2.500000 17.500000 407.500000 
-7.500000 2.500000 412.500000 
-2.500000 2.500000 412.500000 
-7.500000 7.500000 412.500000 
-7.500000 2.500000 417.500000 
-2.500000 7.500000 412.500000 
-2.500000 2.500000 417.500000 
-7.500000 7.500000 417.500000 
-2.500000 7.500000 417.500000 
-17.500000 12.500000 412.500000 
-17.500000 17.500000 412.500000 
-7.500000 12.500000 412.500000 
-2.500000 12.500000 412.500000 
-7.500000 17.500000 412.500000 
-7.500000 12.500000 417.500000 
-2.500000 17.500000 412.500000 
-2.500000 12.500000 417.500000 
-7.500000 17.500000 417.500000 
-2.500000 17.500000 417.500000 
-22.500000 22.500000 417.500000 
-22.500000 27.500000 417.500000 
-37.500000 2.500000 422.500000 
-32.500000 7.500000 422.500000 
-32.500000 2.500000 427.500000 
-32.500000 7.500000 427.500000 
-27.500000 2.500000 422.500000 
-22.500000 2.500000 422.500000 
-27.500000 7.500000 422.500000 
-27.500000 2.500000 427.500000 
-22.500000 7.500000 422.500000 
-27.500000 7.500000 427.500000 
-37.500000 12.500000 422.500000 
-32.500000 12.500000 422.500000 
-37.500000 12.500000 427.500000 
-32.500000 17.500000 422.500000 
-32.500000 12.500000 427.500000 
-32.500000 17.500000 427.500000 
-37.500000 2.500000 432.500000 
-32.500000 2.500000 432.500000 
-37.500000 2.500000 437.500000 
-32.500000 7.500000 432.500000 
-32.500000 2.500000 437.500000 
-37.500000 7.500000 437.500000 
-32.500000 7.500000 437.500000 
-27.500000 12.500000 422.500000 
-22.500000 12.500000 422.500000 
-27.500000 17.500000 422.500000 
-27.500000 12.500000 427.500000 
-22.500000 17.500000 422.500000 
-27.500000 17.500000 427.500000 
-27.500000 2.500000 432.500000 
-27.500000 7.500000 432.500000 
-27.500000 2.500000 437.500000 
-27.500000 7.500000 437.500000 
-37.500000 12.500000 432.500000 
-32.500000 12.500000 432.500000 
-37.500000 12.500000 437.500000 
-32.500000 17.500000 432.500000 
-32.500000 12.500000 437.500000 
-32.500000 17.500000 437.500000 
-27.500000 12.500000 432.500000 
-27.500000 17.500000 432.500000 
-27.500000 12.500000 437.500000 
-27.500000 17.500000 437.500000 
-7.500000 22.500000 402.500000 
-7.500000 22.500000 407.500000 
-2.500000 22.500000 407.500000 
-17.500000 22.500000 412.500000 
-7.500000 22.500000 412.500000 
-2.500000 22.500000 412.500000 
-7.500000 27.500000 412.500000 
-7.500000 22.500000 417.500000 
-2.500000 22.500000 417.500000 
-7.500000 27.500000 417.500000 
-7.500000 2.500000 422.500000 
-2.500000 2.500000 422.500000 
-7.500000 7.500000 422.500000 
-7.500000 2.500000 427.500000 
-2.500000 7.500000 422.500000 
-2.500000 2.500000 427.500000 
-7.500000 7.500000 427.500000 
-2.500000 7.500000 427.500000 
-12.500000 12.500000 422.500000 
-12.500000 17.500000 422.500000 
-12.500000 2.500000 432.500000 
-12.500000 7.500000 432.500000 
-12.500000 2.500000 437.500000 
-12.500000 7.500000 437.500000 
-7.500000 12.500000 422.500000 
-2.500000 12.500000 422.500000 
-7.500000 17.500000 422.500000 
-7.500000 12.500000 427.500000 
-2.500000 17.500000 422.500000 
-2.500000 12.500000 427.500000 
-7.500000 17.500000 427.500000 
-2.500000 17.500000 427.500000 
-7.500000 2.500000 432.500000 
-2.500000 2.500000 432.500000 
-7.500000 7.500000 432.500000 
-7.500000 2.500000 437.500000 
-2.500000 7.500000 432.500000 
-2.500000 2.500000 437.500000 
-7.500000 7.500000 437.500000 
-2.500000 7.500000 437.500000 
-12.500000 12.500000 432.500000 
-12.500000 17.500000 432.500000 
-12.500000 12.500000 437.500000 
-12.500000 17.500000 437.500000 
-7.500000 12.500000 432.500000 
-2.500000 12.500000 432.500000 
-7.500000 17.500000 432.500000 
-7.500000 12.500000 437.500000 
-2.500000 17.500000 432.500000 
-2.500000 12.500000 437.500000 
-7.500000 17.500000 437.500000 
-2.500000 17.500000 437.500000 
-32.500000 22.500000 422.500000 
-32.500000 22.500000 427.500000 
-27.500000 22.500000 422.500000 
-22.500000 22.500000 422.500000 
-27.500000 27.500000 422.500000 
-27.500000 22.500000 427.500000 
-22.500000 27.500000 422.500000 
-27.500000 27.500000 427.500000 
-32.500000 22.500000 432.500000 
-22.500000 32.500000 422.500000 
-27.500000 22.500000 432.500000 
-27.500000 27.500000 432.500000 
-27.500000 22.500000 437.500000 
-27.500000 27.500000 437.500000 
-12.500000 22.500000 422.500000 
-12.500000 27.500000 422.500000 
-7.500000 22.500000 422.500000 
-2.500000 22.500000 422.500000 
-7.500000 27.500000 422.500000 
-7.500000 22.500000 427.500000 
-2.500000 22.500000 427.500000 
-7.500000 27.500000 427.500000 
-2.500000 27.500000 427.500000 
-12.500000 32.500000 422.500000 
-12.500000 22.500000 432.500000 
-12.500000 27.500000 432.500000 
-12.500000 22.500000 437.500000 
-12.500000 27.500000 437.500000 
-7.500000 32.500000 427.500000 
-2.500000 37.500000 427.500000 
-7.500000 22.500000 432.500000 
-2.500000 22.500000 432.500000 
-7.500000 27.500000 432.500000 
-7.500000 22.500000 437.500000 
-2.500000 27.500000 432.500000 
-2.500000 22.500000 437.500000 
-7.500000 27.500000 437.500000 
-2.500000 27.500000 437.500000 
-12.500000 32.500000 432.500000 
-12.500000 37.500000 432.500000 
-12.500000 32.500000 437.500000 
-12.500000 37.500000 437.500000 
-7.500000 32.500000 432.500000 
-2.500000 32.500000 432.500000 
-7.500000 32.500000 437.500000 
-2.500000 37.500000 432.500000 
-2.500000 32.500000 437.500000 
-7.500000 37.500000 437.500000 
-62.500000 2.500000 452.500000 
-67.500000 2.500000 457.500000 
-62.500000 2.500000 457.500000 
-62.500000 7.500000 457.500000 
-52.500000 2.500000 442.500000 
-57.500000 2.500000 447.500000 
-52.500000 2.500000 447.500000 
-52.500000 7.500000 447.500000 
-47.500000 2.500000 442.500000 
-42.500000 2.500000 442.500000 
-47.500000 7.500000 442.500000 
-42.500000 7.500000 442.500000 
-57.500000 2.500000 452.500000 
-47.500000 12.500000 442.500000 
-42.500000 12.500000 442.500000 
-42.500000 17.500000 442.500000 
-42.500000 12.500000 447.500000 
-47.500000 17.500000 447.500000 
-42.500000 17.500000 447.500000 
-42.500000 7.500000 452.500000 
-42.500000 7.500000 457.500000 
-42.500000 12.500000 452.500000 
-47.500000 17.500000 452.500000 
-47.500000 12.500000 457.500000 
-42.500000 17.500000 452.500000 
-42.500000 12.500000 457.500000 
-47.500000 17.500000 457.500000 
-42.500000 17.500000 457.500000 
-72.500000 2.500000 467.500000 
-67.500000 2.500000 462.500000 
-62.500000 2.500000 462.500000 
-67.500000 7.500000 462.500000 
-67.500000 2.500000 467.500000 
-72.500000 2.500000 472.500000 
-77.500000 2.500000 477.500000 
-72.500000 7.500000 472.500000 
-72.500000 2.500000 477.500000 
-42.500000 22.500000 447.500000 
-42.500000 27.500000 447.500000 
-52.500000 22.500000 457.500000 
-52.500000 27.500000 457.500000 
-47.500000 22.500000 452.500000 
-42.500000 22.500000 452.500000 
-47.500000 27.500000 452.500000 
-47.500000 22.500000 457.500000 
-42.500000 27.500000 452.500000 
-42.500000 22.500000 457.500000 
-47.500000 27.500000 457.500000 
-42.500000 27.500000 457.500000 
-42.500000 32.500000 452.500000 
-47.500000 32.500000 457.500000 
-42.500000 32.500000 457.500000 
-42.500000 2.500000 462.500000 
-42.500000 7.500000 462.500000 
-42.500000 2.500000 467.500000 
-42.500000 7.500000 467.500000 
-52.500000 17.500000 467.500000 
-47.500000 12.500000 462.500000 
-42.500000 12.500000 462.500000 
-47.500000 17.500000 462.500000 
-47.500000 12.500000 467.500000 
-42.500000 17.500000 462.500000 
-42.500000 12.500000 467.500000 
-47.500000 17.500000 467.500000 
-42.500000 17.500000 467.500000 
-42.500000 2.500000 472.500000 
-47.500000 7.500000 472.500000 
-47.500000 2.500000 477.500000 
-42.500000 7.500000 472.500000 
-42.500000 2.500000 477.500000 
-47.500000 7.500000 477.500000 
-42.500000 7.500000 477.500000 
-52.500000 12.500000 472.500000 
-52.500000 17.500000 472.500000 
-52.500000 12.500000 477.500000 
-52.500000 17.500000 477.500000 
-47.500000 12.500000 472.500000 
-42.500000 12.500000 472.500000 
-47.500000 17.500000 472.500000 
-47.500000 12.500000 477.500000 
-42.500000 17.500000 472.500000 
-42.500000 12.500000 477.500000 
-47.500000 17.500000 477.500000 
-42.500000 17.500000 477.500000 
-62.500000 27.500000 477.500000 
-52.500000 22.500000 462.500000 
-52.500000 27.500000 462.500000 
-52.500000 22.500000 467.500000 
-57.500000 27.500000 467.500000 
-52.500000 27.500000 467.500000 
-47.500000 22.500000 462.500000 
-42.500000 22.500000 462.500000 
-47.500000 27.500000 462.500000 
-47.500000 22.500000 467.500000 
-42.500000 27.500000 462.500000 
-42.500000 22.500000 467.500000 
-47.500000 27.500000 467.500000 
-52.500000 32.500000 467.500000 
-57.500000 22.500000 472.500000 
-52.500000 22.500000 472.500000 
-57.500000 27.500000 472.500000 
-57.500000 22.500000 477.500000 
-52.500000 27.500000 472.500000 
-52.500000 22.500000 477.500000 
-57.500000 27.500000 477.500000 
-52.500000 27.500000 477.500000 
-47.500000 32.500000 462.500000 
-42.500000 32.500000 462.500000 
-42.500000 37.500000 462.500000 
-42.500000 32.500000 467.500000 
-42.500000 37.500000 467.500000 
-47.500000 22.500000 472.500000 
-42.500000 22.500000 472.500000 
-47.500000 27.500000 472.500000 
-47.500000 22.500000 477.500000 
-42.500000 22.500000 477.500000 
-47.500000 27.500000 477.500000 
-52.500000 32.500000 472.500000 
-57.500000 32.500000 477.500000 
-52.500000 32.500000 477.500000 
-37.500000 2.500000 442.500000 
-32.500000 2.500000 442.500000 
-37.500000 7.500000 442.500000 
-37.500000 2.500000 447.500000 
-32.500000 7.500000 442.500000 
-32.500000 2.500000 447.500000 
-37.500000 7.500000 447.500000 
-32.500000 7.500000 447.500000 
-37.500000 12.500000 442.500000 
-32.500000 12.500000 442.500000 
-37.500000 17.500000 442.500000 
-37.500000 12.500000 447.500000 
-32.500000 17.500000 442.500000 
-32.500000 12.500000 447.500000 
-37.500000 17.500000 447.500000 
-32.500000 17.500000 447.500000 
-37.500000 2.500000 452.500000 
-37.500000 7.500000 452.500000 
-37.500000 2.500000 457.500000 
-37.500000 7.500000 457.500000 
-37.500000 12.500000 452.500000 
-37.500000 17.500000 452.500000 
-37.500000 12.500000 457.500000 
-37.500000 17.500000 457.500000 
-12.500000 2.500000 442.500000 
-12.500000 7.500000 442.500000 
-12.500000 2.500000 447.500000 
-12.500000 7.500000 447.500000 
-7.500000 2.500000 442.500000 
-2.500000 2.500000 442.500000 
-7.500000 7.500000 442.500000 
-7.500000 2.500000 447.500000 
-2.500000 7.500000 442.500000 
-2.500000 2.500000 447.500000 
-7.500000 7.500000 447.500000 
-2.500000 7.500000 447.500000 
-12.500000 12.500000 442.500000 
-12.500000 17.500000 442.500000 
-12.500000 12.500000 447.500000 
-12.500000 17.500000 447.500000 
-17.500000 2.500000 452.500000 
-12.500000 2.500000 452.500000 
-17.500000 7.500000 452.500000 
-17.500000 2.500000 457.500000 
-12.500000 7.500000 452.500000 
-12.500000 2.500000 457.500000 
-17.500000 7.500000 457.500000 
-12.500000 7.500000 457.500000 
-7.500000 12.500000 442.500000 
-2.500000 12.500000 442.500000 
-7.500000 17.500000 442.500000 
-7.500000 12.500000 447.500000 
-2.500000 17.500000 442.500000 
-2.500000 12.500000 447.500000 
-7.500000 17.500000 447.500000 
-2.500000 17.500000 447.500000 
-7.500000 2.500000 452.500000 
-2.500000 2.500000 452.500000 
-7.500000 7.500000 452.500000 
-7.500000 2.500000 457.500000 
-2.500000 7.500000 452.500000 
-2.500000 2.500000 457.500000 
-7.500000 7.500000 457.500000 
-2.500000 7.500000 457.500000 
-17.500000 12.500000 452.500000 
-12.500000 12.500000 452.500000 
-17.500000 17.500000 452.500000 
-17.500000 12.500000 457.500000 
-12.500000 17.500000 452.500000 
-12.500000 12.500000 457.500000 
-17.500000 17.500000 457.500000 
-12.500000 17.500000 457.500000 
-7.500000 12.500000 452.500000 
-2.500000 12.500000 452.500000 
-7.500000 17.500000 452.500000 
-7.500000 12.500000 457.500000 
-2.500000 17.500000 452.500000 
-2.500000 12.500000 457.500000 
-7.500000 17.500000 457.500000 
-2.500000 17.500000 457.500000 
-37.500000 22.500000 442.500000 
-32.500000 22.500000 442.500000 
-37.500000 22.500000 447.500000 
-32.500000 27.500000 442.500000 
-32.500000 22.500000 447.500000 
-37.500000 27.500000 447.500000 
-32.500000 27.500000 447.500000 
-37.500000 32.500000 447.500000 
-32.500000 32.500000 447.500000 
-32.500000 37.500000 447.500000 
-37.500000 22.500000 452.500000 
-37.500000 27.500000 452.500000 
-37.500000 22.500000 457.500000 
-37.500000 27.500000 457.500000 
-37.500000 32.500000 452.500000 
-37.500000 37.500000 452.500000 
-37.500000 32.500000 457.500000 
-37.500000 37.500000 457.500000 
-37.500000 2.500000 462.500000 
-37.500000 7.500000 462.500000 
-37.500000 12.500000 462.500000 
-37.500000 17.500000 462.500000 
-22.500000 2.500000 472.500000 
-22.500000 7.500000 472.500000 
-22.500000 2.500000 477.500000 
-22.500000 7.500000 477.500000 
-22.500000 12.500000 472.500000 
-22.500000 12.500000 477.500000 
-12.500000 22.500000 442.500000 
-12.500000 27.500000 442.500000 
-12.500000 22.500000 447.500000 
-12.500000 27.500000 447.500000 
-7.500000 22.500000 442.500000 
-2.500000 22.500000 442.500000 
-7.500000 27.500000 442.500000 
-7.500000 22.500000 447.500000 
-2.500000 27.500000 442.500000 
-2.500000 22.500000 447.500000 
-7.500000 27.500000 447.500000 
-2.500000 27.500000 447.500000 
-12.500000 32.500000 442.500000 
-12.500000 37.500000 442.500000 
-12.500000 32.500000 447.500000 
-12.500000 37.500000 447.500000 
-17.500000 22.500000 452.500000 
-12.500000 22.500000 452.500000 
-17.500000 27.500000 452.500000 
-17.500000 22.500000 457.500000 
-12.500000 27.500000 452.500000 
-12.500000 22.500000 457.500000 
-17.500000 27.500000 457.500000 
-12.500000 27.500000 457.500000 
-7.500000 32.500000 442.500000 
-2.500000 32.500000 442.500000 
-7.500000 37.500000 442.500000 
-7.500000 32.500000 447.500000 
-2.500000 37.500000 442.500000 
-2.500000 32.500000 447.500000 
-7.500000 37.500000 447.500000 
-7.500000 22.500000 452.500000 
-2.500000 22.500000 452.500000 
-7.500000 27.500000 452.500000 
-7.500000 22.500000 457.500000 
-2.500000 27.500000 452.500000 
-2.500000 22.500000 457.500000 
-7.500000 27.500000 457.500000 
-2.500000 27.500000 457.500000 
-17.500000 32.500000 452.500000 
-12.500000 32.500000 452.500000 
-17.500000 37.500000 452.500000 
-17.500000 32.500000 457.500000 
-12.500000 37.500000 452.500000 
-12.500000 32.500000 457.500000 
-17.500000 37.500000 457.500000 
-12.500000 37.500000 457.500000 
-7.500000 32.500000 452.500000 
-2.500000 32.500000 452.500000 
-7.500000 37.500000 452.500000 
-7.500000 32.500000 457.500000 
-2.500000 32.500000 457.500000 
-7.500000 37.500000 457.500000 
-17.500000 2.500000 462.500000 
-12.500000 2.500000 462.500000 
-17.500000 7.500000 462.500000 
-17.500000 2.500000 467.500000 
-12.500000 7.500000 462.500000 
-12.500000 2.500000 467.500000 
-17.500000 7.500000 467.500000 
-12.500000 7.500000 467.500000 
-7.500000 2.500000 462.500000 
-2.500000 2.500000 462.500000 
-7.500000 7.500000 462.500000 
-7.500000 2.500000 467.500000 
-2.500000 7.500000 462.500000 
-2.500000 2.500000 467.500000 
-7.500000 7.500000 467.500000 
-2.500000 7.500000 467.500000 
-17.500000 12.500000 462.500000 
-12.500000 12.500000 462.500000 
-17.500000 17.500000 462.500000 
-17.500000 12.500000 467.500000 
-12.500000 17.500000 462.500000 
-12.500000 12.500000 467.500000 
-17.500000 17.500000 467.500000 
-12.500000 17.500000 467.500000 
-17.500000 2.500000 472.500000 
-12.500000 2.500000 472.500000 
-17.500000 7.500000 472.500000 
-17.500000 2.500000 477.500000 
-12.500000 7.500000 472.500000 
-12.500000 2.500000 477.500000 
-17.500000 7.500000 477.500000 
-12.500000 7.500000 477.500000 
-7.500000 12.500000 462.500000 
-2.500000 12.500000 462.500000 
-7.500000 17.500000 462.500000 
-7.500000 12.500000 467.500000 
-2.500000 17.500000 462.500000 
-2.500000 12.500000 467.500000 
-7.500000 17.500000 467.500000 
-2.500000 17.500000 467.500000 
-7.500000 2.500000 472.500000 
-2.500000 2.500000 472.500000 
-7.500000 2.500000 477.500000 
-2.500000 2.500000 477.500000 
-17.500000 12.500000 472.500000 
-17.500000 12.500000 477.500000 
-2.500000 12.500000 472.500000 
-7.500000 17.500000 472.500000 
-2.500000 17.500000 472.500000 
-37.500000 22.500000 462.500000 
-37.500000 27.500000 462.500000 
-37.500000 32.500000 462.500000 
-37.500000 37.500000 462.500000 
-22.500000 27.500000 472.500000 
-22.500000 32.500000 472.500000 
-22.500000 37.500000 472.500000 
-22.500000 32.500000 477.500000 
-22.500000 37.500000 477.500000 
-17.500000 22.500000 462.500000 
-12.500000 22.500000 462.500000 
-17.500000 27.500000 462.500000 
-17.500000 22.500000 467.500000 
-12.500000 27.500000 462.500000 
-12.500000 22.500000 467.500000 
-17.500000 27.500000 467.500000 
-12.500000 27.500000 467.500000 
-7.500000 22.500000 462.500000 
-2.500000 22.500000 462.500000 
-7.500000 27.500000 462.500000 
-7.500000 22.500000 467.500000 
-2.500000 27.500000 462.500000 
-2.500000 22.500000 467.500000 
-7.500000 27.500000 467.500000 
-2.500000 27.500000 467.500000 
-17.500000 32.500000 462.500000 
-12.500000 32.500000 462.500000 
-17.500000 37.500000 462.500000 
-17.500000 32.500000 467.500000 
-12.500000 37.500000 462.500000 
-12.500000 32.500000 467.500000 
-17.500000 37.500000 467.500000 
-12.500000 37.500000 467.500000 
-17.500000 22.500000 472.500000 
-12.500000 22.500000 472.500000 
-17.500000 27.500000 472.500000 
-12.500000 27.500000 472.500000 
-12.500000 27.500000 477.500000 
-7.500000 32.500000 462.500000 
-2.500000 32.500000 462.500000 
-7.500000 37.500000 462.500000 
-7.500000 32.500000 467.500000 
-2.500000 32.500000 467.500000 
-7.500000 37.500000 467.500000 
-2.500000 37.500000 467.500000 
-7.500000 22.500000 472.500000 
-2.500000 22.500000 472.500000 
-7.500000 27.500000 472.500000 
-7.500000 22.500000 477.500000 
-2.500000 27.500000 472.500000 
-2.500000 22.500000 477.500000 
-7.500000 27.500000 477.500000 
-2.500000 27.500000 477.500000 
-17.500000 32.500000 472.500000 
-12.500000 32.500000 472.500000 
-17.500000 37.500000 472.500000 
-17.500000 32.500000 477.500000 
-12.500000 37.500000 472.500000 
-12.500000 32.500000 477.500000 
-17.500000 37.500000 477.500000 
-12.500000 37.500000 477.500000 
-7.500000 32.500000 472.500000 
-2.500000 32.500000 472.500000 
-7.500000 37.500000 472.500000 
-7.500000 32.500000 477.500000 
-2.500000 37.500000 472.500000 
-2.500000 32.500000 477.500000 
-7.500000 37.500000 477.500000 
-2.500000 37.500000 477.500000 
-17.500000 42.500000 457.500000 
-12.500000 42.500000 457.500000 
-7.500000 42.500000 457.500000 
-22.500000 42.500000 472.500000 
-22.500000 42.500000 477.500000 
-22.500000 47.500000 477.500000 
-17.500000 42.500000 462.500000 
-12.500000 42.500000 462.500000 
-17.500000 42.500000 467.500000 
-12.500000 42.500000 467.500000 
-17.500000 47.500000 467.500000 
-12.500000 47.500000 467.500000 
-7.500000 42.500000 462.500000 
-7.500000 42.500000 467.500000 
-7.500000 47.500000 467.500000 
-17.500000 42.500000 472.500000 
-12.500000 42.500000 472.500000 
-17.500000 47.500000 472.500000 
-17.500000 42.500000 477.500000 
-12.500000 47.500000 472.500000 
-12.500000 42.500000 477.500000 
-17.500000 47.500000 477.500000 
-12.500000 47.500000 477.500000 
-7.500000 42.500000 472.500000 
-7.500000 47.500000 472.500000 
-7.500000 42.500000 477.500000 
-7.500000 47.500000 477.500000 
-82.500000 2.500000 487.500000 
-82.500000 2.500000 492.500000 
-82.500000 2.500000 497.500000 
-77.500000 2.500000 482.500000 
-77.500000 2.500000 487.500000 
-62.500000 17.500000 492.500000 
-62.500000 17.500000 497.500000 
-52.500000 7.500000 482.500000 
-52.500000 2.500000 487.500000 
-52.500000 7.500000 487.500000 
-47.500000 2.500000 482.500000 
-42.500000 2.500000 482.500000 
-47.500000 7.500000 482.500000 
-47.500000 2.500000 487.500000 
-42.500000 7.500000 482.500000 
-47.500000 7.500000 487.500000 
-52.500000 12.500000 482.500000 
-57.500000 17.500000 482.500000 
-57.500000 12.500000 487.500000 
-52.500000 17.500000 482.500000 
-52.500000 12.500000 487.500000 
-57.500000 17.500000 487.500000 
-52.500000 17.500000 487.500000 
-52.500000 2.500000 492.500000 
-52.500000 7.500000 492.500000 
-52.500000 2.500000 497.500000 
-57.500000 7.500000 497.500000 
-52.500000 7.500000 497.500000 
-47.500000 12.500000 482.500000 
-42.500000 12.500000 482.500000 
-47.500000 17.500000 482.500000 
-47.500000 12.500000 487.500000 
-42.500000 17.500000 482.500000 
-47.500000 17.500000 487.500000 
-47.500000 2.500000 492.500000 
-47.500000 7.500000 492.500000 
-47.500000 2.500000 497.500000 
-42.500000 2.500000 497.500000 
-47.500000 7.500000 497.500000 
-42.500000 7.500000 497.500000 
-57.500000 12.500000 492.500000 
-52.500000 12.500000 492.500000 
-57.500000 17.500000 492.500000 
-57.500000 12.500000 497.500000 
-52.500000 17.500000 492.500000 
-52.500000 12.500000 497.500000 
-57.500000 17.500000 497.500000 
-52.500000 17.500000 497.500000 
-47.500000 12.500000 492.500000 
-47.500000 17.500000 492.500000 
-47.500000 12.500000 497.500000 
-42.500000 12.500000 497.500000 
-47.500000 17.500000 497.500000 
-42.500000 17.500000 497.500000 
-62.500000 27.500000 482.500000 
-62.500000 22.500000 487.500000 
-62.500000 27.500000 487.500000 
-62.500000 32.500000 482.500000 
-62.500000 32.500000 487.500000 
-62.500000 22.500000 492.500000 
-62.500000 27.500000 492.500000 
-62.500000 32.500000 492.500000 
-62.500000 37.500000 492.500000 
-62.500000 12.500000 502.500000 
-57.500000 22.500000 482.500000 
-52.500000 22.500000 482.500000 
-57.500000 27.500000 482.500000 
-57.500000 22.500000 487.500000 
-52.500000 27.500000 482.500000 
-52.500000 22.500000 487.500000 
-57.500000 27.500000 487.500000 
-52.500000 27.500000 487.500000 
-47.500000 22.500000 482.500000 
-42.500000 22.500000 482.500000 
-47.500000 27.500000 482.500000 
-47.500000 22.500000 487.500000 
-42.500000 22.500000 487.500000 
-47.500000 27.500000 487.500000 
-57.500000 32.500000 482.500000 
-52.500000 32.500000 482.500000 
-57.500000 32.500000 487.500000 
-52.500000 32.500000 487.500000 
-57.500000 22.500000 492.500000 
-52.500000 22.500000 492.500000 
-57.500000 27.500000 492.500000 
-57.500000 22.500000 497.500000 
-52.500000 27.500000 492.500000 
-52.500000 22.500000 497.500000 
-52.500000 27.500000 497.500000 
-47.500000 22.500000 492.500000 
-47.500000 27.500000 492.500000 
-47.500000 22.500000 497.500000 
-42.500000 22.500000 497.500000 
-47.500000 27.500000 497.500000 
-57.500000 32.500000 492.500000 
-52.500000 32.500000 492.500000 
-52.500000 32.500000 497.500000 
-57.500000 2.500000 502.500000 
-52.500000 2.500000 502.500000 
-57.500000 7.500000 502.500000 
-52.500000 7.500000 502.500000 
-47.500000 2.500000 502.500000 
-47.500000 7.500000 502.500000 
-57.500000 12.500000 502.500000 
-52.500000 12.500000 502.500000 
-57.500000 17.500000 502.500000 
-52.500000 17.500000 502.500000 
-42.500000 7.500000 512.500000 
-42.500000 2.500000 517.500000 
-42.500000 7.500000 517.500000 
-52.500000 22.500000 502.500000 
-27.500000 2.500000 482.500000 
-22.500000 2.500000 482.500000 
-27.500000 7.500000 482.500000 
-27.500000 2.500000 487.500000 
-22.500000 7.500000 482.500000 
-22.500000 2.500000 487.500000 
-27.500000 7.500000 487.500000 
-22.500000 7.500000 487.500000 
-32.500000 2.500000 497.500000 
-32.500000 7.500000 497.500000 
-27.500000 12.500000 482.500000 
-22.500000 12.500000 482.500000 
-27.500000 12.500000 487.500000 
-22.500000 12.500000 487.500000 
-27.500000 17.500000 487.500000 
-27.500000 2.500000 492.500000 
-22.500000 2.500000 492.500000 
-27.500000 7.500000 492.500000 
-27.500000 2.500000 497.500000 
-22.500000 7.500000 492.500000 
-22.500000 2.500000 497.500000 
-27.500000 7.500000 497.500000 
-22.500000 7.500000 497.500000 
-32.500000 12.500000 497.500000 
-32.500000 17.500000 497.500000 
-27.500000 12.500000 492.500000 
-22.500000 12.500000 492.500000 
-27.500000 17.500000 492.500000 
-27.500000 12.500000 497.500000 
-22.500000 12.500000 497.500000 
-27.500000 17.500000 497.500000 
-17.500000 2.500000 482.500000 
-12.500000 2.500000 482.500000 
-17.500000 7.500000 482.500000 
-17.500000 2.500000 487.500000 
-12.500000 7.500000 482.500000 
-12.500000 2.500000 487.500000 
-17.500000 7.500000 487.500000 
-12.500000 7.500000 487.500000 
-7.500000 2.500000 482.500000 
-2.500000 2.500000 482.500000 
-7.500000 2.500000 487.500000 
-2.500000 2.500000 487.500000 
-17.500000 12.500000 482.500000 
-17.500000 12.500000 487.500000 
-17.500000 2.500000 492.500000 
-12.500000 2.500000 492.500000 
-17.500000 7.500000 492.500000 
-17.500000 2.500000 497.500000 
-12.500000 7.500000 492.500000 
-12.500000 2.500000 497.500000 
-17.500000 7.500000 497.500000 
-12.500000 7.500000 497.500000 
-7.500000 2.500000 492.500000 
-2.500000 2.500000 492.500000 
-7.500000 2.500000 497.500000 
-2.500000 2.500000 497.500000 
-17.500000 12.500000 492.500000 
-17.500000 12.500000 497.500000 
-32.500000 2.500000 502.500000 
-37.500000 2.500000 507.500000 
-32.500000 7.500000 502.500000 
-32.500000 2.500000 507.500000 
-37.500000 7.500000 507.500000 
-32.500000 7.500000 507.500000 
-27.500000 2.500000 502.500000 
-22.500000 2.500000 502.500000 
-27.500000 7.500000 502.500000 
-27.500000 2.500000 507.500000 
-22.500000 7.500000 502.500000 
-22.500000 2.500000 507.500000 
-27.500000 7.500000 507.500000 
-22.500000 7.500000 507.500000 
-32.500000 12.500000 502.500000 
-37.500000 12.500000 507.500000 
-32.500000 17.500000 502.500000 
-32.500000 12.500000 507.500000 
-37.500000 17.500000 507.500000 
-32.500000 17.500000 507.500000 
-37.500000 2.500000 512.500000 
-32.500000 2.500000 512.500000 
-37.500000 7.500000 512.500000 
-37.500000 2.500000 517.500000 
-32.500000 7.500000 512.500000 
-32.500000 2.500000 517.500000 
-37.500000 7.500000 517.500000 
-32.500000 7.500000 517.500000 
-27.500000 12.500000 502.500000 
-22.500000 12.500000 502.500000 
-27.500000 17.500000 502.500000 
-27.500000 12.500000 507.500000 
-22.500000 12.500000 507.500000 
-27.500000 17.500000 507.500000 
-27.500000 2.500000 512.500000 
-22.500000 2.500000 512.500000 
-27.500000 7.500000 512.500000 
-27.500000 2.500000 517.500000 
-22.500000 7.500000 512.500000 
-22.500000 2.500000 517.500000 
-27.500000 7.500000 517.500000 
-22.500000 7.500000 517.500000 
-32.500000 12.500000 512.500000 
-37.500000 12.500000 517.500000 
-32.500000 12.500000 517.500000 
-27.500000 12.500000 512.500000 
-22.500000 12.500000 512.500000 
-27.500000 17.500000 512.500000 
-27.500000 12.500000 517.500000 
-22.500000 12.500000 517.500000 
-27.500000 17.500000 517.500000 
-7.500000 27.500000 482.500000 
-2.500000 27.500000 482.500000 
-12.500000 32.500000 482.500000 
-17.500000 37.500000 482.500000 
-12.500000 37.500000 482.500000 
-7.500000 32.500000 482.500000 
-2.500000 32.500000 482.500000 
-7.500000 37.500000 482.500000 
-2.500000 37.500000 482.500000 
-2.500000 32.500000 487.500000 
-7.500000 37.500000 487.500000 
-2.500000 37.500000 487.500000 
-17.500000 2.500000 502.500000 
-12.500000 2.500000 502.500000 
-17.500000 7.500000 502.500000 
-17.500000 2.500000 507.500000 
-12.500000 7.500000 502.500000 
-12.500000 2.500000 507.500000 
-17.500000 7.500000 507.500000 
-12.500000 7.500000 507.500000 
-7.500000 2.500000 502.500000 
-2.500000 2.500000 502.500000 
-7.500000 2.500000 507.500000 
-2.500000 2.500000 507.500000 
-17.500000 12.500000 502.500000 
-17.500000 12.500000 507.500000 
-17.500000 2.500000 512.500000 
-12.500000 2.500000 512.500000 
-17.500000 7.500000 512.500000 
-17.500000 2.500000 517.500000 
-12.500000 7.500000 512.500000 
-12.500000 2.500000 517.500000 
-17.500000 7.500000 517.500000 
-12.500000 7.500000 517.500000 
-7.500000 2.500000 512.500000 
-2.500000 2.500000 512.500000 
-7.500000 2.500000 517.500000 
-2.500000 2.500000 517.500000 
-17.500000 12.500000 512.500000 
-17.500000 12.500000 517.500000 
-42.500000 2.500000 522.500000 
-42.500000 7.500000 522.500000 
-42.500000 2.500000 527.500000 
-42.500000 7.500000 527.500000 
-42.500000 12.500000 522.500000 
-42.500000 12.500000 527.500000 
-47.500000 2.500000 532.500000 
-42.500000 2.500000 532.500000 
-47.500000 7.500000 532.500000 
-47.500000 2.500000 537.500000 
-42.500000 7.500000 532.500000 
-42.500000 2.500000 537.500000 
-47.500000 7.500000 537.500000 
-42.500000 7.500000 537.500000 
-47.500000 12.500000 532.500000 
-42.500000 12.500000 532.500000 
-47.500000 12.500000 537.500000 
-42.500000 17.500000 532.500000 
-42.500000 12.500000 537.500000 
-47.500000 17.500000 537.500000 
-42.500000 17.500000 537.500000 
-52.500000 2.500000 542.500000 
-52.500000 7.500000 542.500000 
-52.500000 2.500000 547.500000 
-52.500000 7.500000 547.500000 
-47.500000 2.500000 542.500000 
-42.500000 2.500000 542.500000 
-47.500000 7.500000 542.500000 
-47.500000 2.500000 547.500000 
-42.500000 7.500000 542.500000 
-42.500000 2.500000 547.500000 
-47.500000 7.500000 547.500000 
-42.500000 7.500000 547.500000 
-52.500000 12.500000 542.500000 
-52.500000 17.500000 542.500000 
-52.500000 12.500000 547.500000 
-52.500000 17.500000 547.500000 
-57.500000 2.500000 552.500000 
-52.500000 2.500000 552.500000 
-57.500000 7.500000 552.500000 
-57.500000 2.500000 557.500000 
-52.500000 7.500000 552.500000 
-52.500000 2.500000 557.500000 
-57.500000 7.500000 557.500000 
-52.500000 7.500000 557.500000 
-47.500000 12.500000 542.500000 
-42.500000 12.500000 542.500000 
-47.500000 17.500000 542.500000 
-47.500000 12.500000 547.500000 
-42.500000 17.500000 542.500000 
-42.500000 12.500000 547.500000 
-47.500000 17.500000 547.500000 
-42.500000 17.500000 547.500000 
-47.500000 2.500000 552.500000 
-42.500000 2.500000 552.500000 
-47.500000 7.500000 552.500000 
-47.500000 2.500000 557.500000 
-42.500000 7.500000 552.500000 
-42.500000 2.500000 557.500000 
-47.500000 7.500000 557.500000 
-42.500000 7.500000 557.500000 
-57.500000 12.500000 552.500000 
-52.500000 12.500000 552.500000 
-57.500000 17.500000 552.500000 
-57.500000 12.500000 557.500000 
-52.500000 17.500000 552.500000 
-52.500000 12.500000 557.500000 
-57.500000 17.500000 557.500000 
-52.500000 17.500000 557.500000 
-47.500000 12.500000 552.500000 
-42.500000 12.500000 552.500000 
-47.500000 17.500000 552.500000 
-47.500000 12.500000 557.500000 
-42.500000 17.500000 557.500000 
-42.500000 22.500000 552.500000 
-42.500000 22.500000 557.500000 
-22.500000 42.500000 482.500000 
-22.500000 47.500000 482.500000 
-22.500000 47.500000 487.500000 
-27.500000 52.500000 487.500000 
-22.500000 52.500000 487.500000 
-22.500000 52.500000 492.500000 
-17.500000 42.500000 482.500000 
-12.500000 42.500000 482.500000 
-17.500000 47.500000 482.500000 
-17.500000 42.500000 487.500000 
-12.500000 47.500000 482.500000 
-12.500000 42.500000 487.500000 
-17.500000 47.500000 487.500000 
-12.500000 47.500000 487.500000 
-7.500000 42.500000 482.500000 
-7.500000 47.500000 482.500000 
-7.500000 42.500000 487.500000 
-7.500000 47.500000 487.500000 
-17.500000 52.500000 487.500000 
-12.500000 52.500000 487.500000 
-12.500000 47.500000 492.500000 
-7.500000 42.500000 492.500000 
-2.500000 42.500000 492.500000 
-7.500000 47.500000 492.500000 
-7.500000 47.500000 497.500000 
-17.500000 52.500000 492.500000 
-12.500000 52.500000 492.500000 
-12.500000 52.500000 497.500000 
-7.500000 52.500000 492.500000 
-7.500000 52.500000 497.500000 
-37.500000 2.500000 522.500000 
-32.500000 2.500000 522.500000 
-37.500000 7.500000 522.500000 
-37.500000 2.500000 527.500000 
-32.500000 7.500000 522.500000 
-32.500000 2.500000 527.500000 
-37.500000 7.500000 527.500000 
-32.500000 7.500000 527.500000 
-27.500000 2.500000 522.500000 
-22.500000 2.500000 522.500000 
-27.500000 7.500000 522.500000 
-27.500000 2.500000 527.500000 
-22.500000 7.500000 522.500000 
-22.500000 2.500000 527.500000 
-27.500000 7.500000 527.500000 
-22.500000 7.500000 527.500000 
-37.500000 12.500000 522.500000 
-32.500000 12.500000 522.500000 
-37.500000 12.500000 527.500000 
-32.500000 17.500000 522.500000 
-32.500000 12.500000 527.500000 
-37.500000 17.500000 527.500000 
-32.500000 17.500000 527.500000 
-37.500000 2.500000 532.500000 
-32.500000 2.500000 532.500000 
-37.500000 7.500000 532.500000 
-37.500000 2.500000 537.500000 
-32.500000 7.500000 532.500000 
-32.500000 2.500000 537.500000 
-37.500000 7.500000 537.500000 
-32.500000 7.500000 537.500000 
-27.500000 12.500000 522.500000 
-22.500000 12.500000 522.500000 
-27.500000 17.500000 522.500000 
-27.500000 12.500000 527.500000 
-22.500000 12.500000 527.500000 
-27.500000 17.500000 527.500000 
-27.500000 2.500000 532.500000 
-22.500000 2.500000 532.500000 
-27.500000 7.500000 532.500000 
-27.500000 2.500000 537.500000 
-22.500000 7.500000 532.500000 
-22.500000 2.500000 537.500000 
-27.500000 7.500000 537.500000 
-22.500000 7.500000 537.500000 
-37.500000 12.500000 532.500000 
-32.500000 12.500000 532.500000 
-37.500000 17.500000 532.500000 
-37.500000 12.500000 537.500000 
-32.500000 17.500000 532.500000 
-32.500000 12.500000 537.500000 
-37.500000 17.500000 537.500000 
-32.500000 17.500000 537.500000 
-27.500000 12.500000 532.500000 
-22.500000 12.500000 532.500000 
-27.500000 17.500000 532.500000 
-27.500000 12.500000 537.500000 
-22.500000 12.500000 537.500000 
-27.500000 17.500000 537.500000 
-17.500000 2.500000 522.500000 
-12.500000 2.500000 522.500000 
-17.500000 7.500000 522.500000 
-17.500000 2.500000 527.500000 
-12.500000 7.500000 522.500000 
-12.500000 2.500000 527.500000 
-17.500000 7.500000 527.500000 
-12.500000 7.500000 527.500000 
-7.500000 2.500000 522.500000 
-2.500000 2.500000 522.500000 
-7.500000 2.500000 527.500000 
-2.500000 2.500000 527.500000 
-17.500000 12.500000 522.500000 
-17.500000 12.500000 527.500000 
-17.500000 2.500000 532.500000 
-12.500000 2.500000 532.500000 
-17.500000 7.500000 532.500000 
-17.500000 2.500000 537.500000 
-12.500000 7.500000 532.500000 
-12.500000 2.500000 537.500000 
-17.500000 7.500000 537.500000 
-12.500000 7.500000 537.500000 
-7.500000 2.500000 532.500000 
-2.500000 2.500000 532.500000 
-7.500000 2.500000 537.500000 
-2.500000 2.500000 537.500000 
-17.500000 12.500000 532.500000 
-17.500000 12.500000 537.500000 
-37.500000 22.500000 532.500000 
-37.500000 22.500000 537.500000 
-37.500000 2.500000 542.500000 
-32.500000 2.500000 542.500000 
-37.500000 7.500000 542.500000 
-37.500000 2.500000 547.500000 
-32.500000 7.500000 542.500000 
-32.500000 2.500000 547.500000 
-37.500000 7.500000 547.500000 
-32.500000 7.500000 547.500000 
-27.500000 2.500000 542.500000 
-22.500000 2.500000 542.500000 
-27.500000 7.500000 542.500000 
-27.500000 2.500000 547.500000 
-22.500000 7.500000 542.500000 
-22.500000 2.500000 547.500000 
-27.500000 7.500000 547.500000 
-22.500000 7.500000 547.500000 
-37.500000 12.500000 542.500000 
-32.500000 12.500000 542.500000 
-37.500000 17.500000 542.500000 
-37.500000 12.500000 547.500000 
-32.500000 17.500000 542.500000 
-32.500000 12.500000 547.500000 
-37.500000 17.500000 547.500000 
-32.500000 17.500000 547.500000 
-37.500000 2.500000 552.500000 
-32.500000 7.500000 552.500000 
-32.500000 2.500000 557.500000 
-32.500000 7.500000 557.500000 
-27.500000 12.500000 542.500000 
-22.500000 12.500000 542.500000 
-27.500000 17.500000 542.500000 
-27.500000 12.500000 547.500000 
-22.500000 12.500000 547.500000 
-27.500000 17.500000 547.500000 
-27.500000 2.500000 552.500000 
-22.500000 2.500000 552.500000 
-27.500000 7.500000 552.500000 
-27.500000 2.500000 557.500000 
-22.500000 7.500000 552.500000 
-22.500000 2.500000 557.500000 
-27.500000 7.500000 557.500000 
-22.500000 7.500000 557.500000 
-37.500000 12.500000 552.500000 
-32.500000 12.500000 552.500000 
-37.500000 17.500000 552.500000 
-37.500000 12.500000 557.500000 
-32.500000 17.500000 552.500000 
-32.500000 12.500000 557.500000 
-37.500000 17.500000 557.500000 
-32.500000 17.500000 557.500000 
-27.500000 12.500000 552.500000 
-22.500000 12.500000 552.500000 
-27.500000 17.500000 552.500000 
-27.500000 12.500000 557.500000 
-22.500000 12.500000 557.500000 
-17.500000 2.500000 542.500000 
-12.500000 2.500000 542.500000 
-17.500000 7.500000 542.500000 
-17.500000 2.500000 547.500000 
-12.500000 7.500000 542.500000 
-12.500000 2.500000 547.500000 
-17.500000 7.500000 547.500000 
-12.500000 7.500000 547.500000 
-7.500000 2.500000 542.500000 
-2.500000 2.500000 542.500000 
-7.500000 2.500000 547.500000 
-2.500000 2.500000 547.500000 
-17.500000 12.500000 542.500000 
-17.500000 12.500000 547.500000 
-17.500000 2.500000 552.500000 
-12.500000 2.500000 552.500000 
-17.500000 7.500000 552.500000 
-17.500000 2.500000 557.500000 
-12.500000 7.500000 552.500000 
-12.500000 2.500000 557.500000 
-17.500000 7.500000 557.500000 
-12.500000 7.500000 557.500000 
-7.500000 2.500000 552.500000 
-2.500000 2.500000 552.500000 
-7.500000 2.500000 557.500000 
-2.500000 2.500000 557.500000 
-17.500000 12.500000 552.500000 
-37.500000 22.500000 542.500000 
-37.500000 22.500000 547.500000 
-37.500000 22.500000 552.500000 
-62.500000 2.500000 562.500000 
-67.500000 2.500000 567.500000 
-62.500000 7.500000 562.500000 
-62.500000 2.500000 567.500000 
-67.500000 7.500000 567.500000 
-62.500000 7.500000 567.500000 
-72.500000 2.500000 572.500000 
-62.500000 12.500000 562.500000 
-67.500000 12.500000 567.500000 
-62.500000 17.500000 562.500000 
-62.500000 12.500000 567.500000 
-62.500000 17.500000 567.500000 
-67.500000 2.500000 572.500000 
-62.500000 2.500000 572.500000 
-67.500000 7.500000 572.500000 
-62.500000 7.500000 572.500000 
-67.500000 12.500000 572.500000 
-62.500000 12.500000 572.500000 
-62.500000 17.500000 572.500000 
-57.500000 2.500000 562.500000 
-52.500000 2.500000 562.500000 
-57.500000 7.500000 562.500000 
-57.500000 2.500000 567.500000 
-52.500000 7.500000 562.500000 
-52.500000 2.500000 567.500000 
-57.500000 7.500000 567.500000 
-52.500000 7.500000 567.500000 
-47.500000 2.500000 562.500000 
-47.500000 7.500000 562.500000 
-47.500000 2.500000 567.500000 
-57.500000 12.500000 562.500000 
-52.500000 12.500000 562.500000 
-57.500000 17.500000 562.500000 
-57.500000 12.500000 567.500000 
-57.500000 17.500000 567.500000 
-57.500000 2.500000 572.500000 
-52.500000 2.500000 572.500000 
-57.500000 7.500000 572.500000 
-42.500000 17.500000 562.500000 
-42.500000 12.500000 567.500000 
-42.500000 17.500000 567.500000 
-42.500000 7.500000 572.500000 
-57.500000 12.500000 572.500000 
-47.500000 17.500000 572.500000 
-42.500000 12.500000 577.500000 
-47.500000 22.500000 562.500000 
-32.500000 2.500000 562.500000 
-37.500000 7.500000 562.500000 
-32.500000 7.500000 562.500000 
-32.500000 2.500000 567.500000 
-37.500000 7.500000 567.500000 
-32.500000 7.500000 567.500000 
-27.500000 2.500000 562.500000 
-22.500000 2.500000 562.500000 
-27.500000 7.500000 562.500000 
-27.500000 2.500000 567.500000 
