37.500000 -112.500000 667.500000 
52.500000 -112.500000 667.500000 
37.500000 -97.500000 667.500000 
37.500000 -112.500000 682.500000 
52.500000 -97.500000 667.500000 
52.500000 -112.500000 682.500000 
37.500000 -97.500000 682.500000 
52.500000 -97.500000 682.500000 
7.500000 -82.500000 667.500000 
22.500000 -82.500000 667.500000 
7.500000 -112.500000 697.500000 
22.500000 -112.500000 697.500000 
37.500000 -82.500000 667.500000 
52.500000 -82.500000 667.500000 
37.500000 -112.500000 697.500000 
52.500000 -112.500000 697.500000 
247.500000 -7.500000 577.500000 
262.500000 -7.500000 577.500000 
247.500000 -7.500000 592.500000 
262.500000 -7.500000 592.500000 
277.500000 -7.500000 592.500000 
-7.500000 7.500000 187.500000 
-7.500000 7.500000 202.500000 
-7.500000 7.500000 217.500000 
-7.500000 7.500000 232.500000 
-7.500000 7.500000 292.500000 
-7.500000 7.500000 307.500000 
-7.500000 7.500000 322.500000 
-7.500000 22.500000 337.500000 
-7.500000 22.500000 352.500000 
-22.500000 7.500000 367.500000 
-7.500000 7.500000 367.500000 
-22.500000 7.500000 382.500000 
-7.500000 7.500000 382.500000 
-22.500000 22.500000 382.500000 
-7.500000 22.500000 382.500000 
-37.500000 7.500000 412.500000 
-37.500000 22.500000 412.500000 
-22.500000 7.500000 397.500000 
-7.500000 7.500000 397.500000 
-22.500000 7.500000 412.500000 
-7.500000 22.500000 397.500000 
-7.500000 7.500000 412.500000 
-22.500000 22.500000 412.500000 
-7.500000 22.500000 412.500000 
-22.500000 37.500000 412.500000 
-7.500000 37.500000 412.500000 
-67.500000 7.500000 457.500000 
-82.500000 7.500000 472.500000 
-67.500000 22.500000 457.500000 
-67.500000 7.500000 472.500000 
-67.500000 22.500000 472.500000 
-37.500000 7.500000 427.500000 
-52.500000 7.500000 442.500000 
-37.500000 22.500000 427.500000 
-37.500000 7.500000 442.500000 
-52.500000 22.500000 442.500000 
-37.500000 22.500000 442.500000 
-22.500000 7.500000 427.500000 
-7.500000 7.500000 427.500000 
-22.500000 22.500000 427.500000 
-22.500000 7.500000 442.500000 
-7.500000 22.500000 427.500000 
-7.500000 7.500000 442.500000 
-22.500000 22.500000 442.500000 
-7.500000 22.500000 442.500000 
-37.500000 37.500000 442.500000 
-52.500000 7.500000 457.500000 
-37.500000 7.500000 457.500000 
-52.500000 22.500000 457.500000 
-52.500000 7.500000 472.500000 
-37.500000 22.500000 457.500000 
-37.500000 7.500000 472.500000 
-52.500000 22.500000 472.500000 
-37.500000 22.500000 472.500000 
-22.500000 37.500000 427.500000 
-7.500000 37.500000 427.500000 
-22.500000 37.500000 442.500000 
-7.500000 37.500000 442.500000 
-22.500000 7.500000 457.500000 
-7.500000 7.500000 457.500000 
-22.500000 22.500000 457.500000 
-22.500000 7.500000 472.500000 
-7.500000 22.500000 457.500000 
-7.500000 7.500000 472.500000 
-22.500000 22.500000 472.500000 
-7.500000 22.500000 472.500000 
-52.500000 37.500000 457.500000 
-37.500000 37.500000 457.500000 
-52.500000 37.500000 472.500000 
-37.500000 37.500000 472.500000 
-37.500000 52.500000 472.500000 
-22.500000 37.500000 457.500000 
-7.500000 37.500000 457.500000 
-22.500000 37.500000 472.500000 
-7.500000 37.500000 472.500000 
-22.500000 52.500000 472.500000 
-7.500000 52.500000 472.500000 
-82.500000 7.500000 487.500000 
-67.500000 7.500000 487.500000 
-82.500000 7.500000 502.500000 
-67.500000 22.500000 487.500000 
-67.500000 7.500000 502.500000 
-67.500000 22.500000 502.500000 
-67.500000 37.500000 487.500000 
-67.500000 7.500000 517.500000 
-67.500000 7.500000 532.500000 
-52.500000 7.500000 487.500000 
-37.500000 7.500000 487.500000 
-52.500000 22.500000 487.500000 
-52.500000 7.500000 502.500000 
-37.500000 22.500000 487.500000 
-37.500000 7.500000 502.500000 
-52.500000 22.500000 502.500000 
-37.500000 22.500000 502.500000 
-22.500000 7.500000 487.500000 
-7.500000 7.500000 487.500000 
-22.500000 22.500000 487.500000 
-22.500000 7.500000 502.500000 
-7.500000 22.500000 487.500000 
-7.500000 7.500000 502.500000 
-22.500000 22.500000 502.500000 
-52.500000 37.500000 487.500000 
-52.500000 52.500000 487.500000 
-52.500000 37.500000 502.500000 
-37.500000 52.500000 487.500000 
-52.500000 7.500000 517.500000 
-37.500000 7.500000 517.500000 
-52.500000 7.500000 532.500000 
-37.500000 22.500000 517.500000 
-37.500000 7.500000 532.500000 
-52.500000 22.500000 532.500000 
-37.500000 22.500000 532.500000 
-22.500000 37.500000 487.500000 
-7.500000 37.500000 487.500000 
-22.500000 52.500000 487.500000 
-7.500000 52.500000 487.500000 
-22.500000 52.500000 502.500000 
-7.500000 52.500000 502.500000 
-22.500000 7.500000 517.500000 
-7.500000 7.500000 517.500000 
-22.500000 22.500000 517.500000 
-22.500000 7.500000 532.500000 
-7.500000 7.500000 532.500000 
-22.500000 22.500000 532.500000 
-7.500000 52.500000 517.500000 
-97.500000 7.500000 562.500000 
-82.500000 7.500000 547.500000 
-67.500000 7.500000 562.500000 
-67.500000 22.500000 562.500000 
-97.500000 7.500000 577.500000 
-82.500000 7.500000 577.500000 
-67.500000 7.500000 577.500000 
-67.500000 22.500000 577.500000 
-52.500000 7.500000 547.500000 
-37.500000 7.500000 547.500000 
-52.500000 22.500000 547.500000 
-52.500000 7.500000 562.500000 
-37.500000 22.500000 547.500000 
-37.500000 7.500000 562.500000 
-52.500000 22.500000 562.500000 
-37.500000 22.500000 562.500000 
-22.500000 7.500000 547.500000 
-7.500000 7.500000 547.500000 
-22.500000 22.500000 547.500000 
-22.500000 7.500000 562.500000 
-7.500000 7.500000 562.500000 
-52.500000 7.500000 577.500000 
-37.500000 7.500000 577.500000 
-52.500000 22.500000 577.500000 
-22.500000 7.500000 577.500000 
7.500000 7.500000 22.500000 
7.500000 7.500000 37.500000 
7.500000 7.500000 52.500000 
22.500000 7.500000 52.500000 
37.500000 7.500000 52.500000 
7.500000 7.500000 67.500000 
22.500000 7.500000 67.500000 
22.500000 7.500000 82.500000 
37.500000 7.500000 67.500000 
37.500000 7.500000 82.500000 
52.500000 7.500000 82.500000 
22.500000 7.500000 97.500000 
37.500000 7.500000 97.500000 
52.500000 7.500000 97.500000 
37.500000 7.500000 112.500000 
52.500000 7.500000 112.500000 
67.500000 7.500000 97.500000 
67.500000 7.500000 112.500000 
82.500000 7.500000 112.500000 
52.500000 7.500000 127.500000 
52.500000 22.500000 127.500000 
7.500000 7.500000 172.500000 
67.500000 7.500000 127.500000 
82.500000 7.500000 127.500000 
67.500000 22.500000 127.500000 
67.500000 7.500000 142.500000 
82.500000 22.500000 127.500000 
82.500000 7.500000 142.500000 
67.500000 22.500000 142.500000 
82.500000 22.500000 142.500000 
97.500000 7.500000 142.500000 
67.500000 7.500000 157.500000 
82.500000 7.500000 157.500000 
67.500000 22.500000 157.500000 
82.500000 22.500000 157.500000 
82.500000 7.500000 172.500000 
82.500000 22.500000 172.500000 
97.500000 7.500000 157.500000 
112.500000 7.500000 157.500000 
97.500000 22.500000 157.500000 
97.500000 7.500000 172.500000 
112.500000 22.500000 157.500000 
112.500000 7.500000 172.500000 
97.500000 22.500000 172.500000 
112.500000 22.500000 172.500000 
82.500000 37.500000 172.500000 
97.500000 37.500000 172.500000 
112.500000 37.500000 172.500000 
7.500000 7.500000 187.500000 
112.500000 7.500000 187.500000 
112.500000 22.500000 187.500000 
112.500000 37.500000 187.500000 
112.500000 52.500000 187.500000 
127.500000 7.500000 172.500000 
142.500000 7.500000 172.500000 
127.500000 22.500000 172.500000 
127.500000 37.500000 172.500000 
127.500000 7.500000 187.500000 
142.500000 7.500000 187.500000 
127.500000 22.500000 187.500000 
127.500000 7.500000 202.500000 
142.500000 22.500000 187.500000 
142.500000 7.500000 202.500000 
127.500000 22.500000 202.500000 
142.500000 22.500000 202.500000 
157.500000 7.500000 202.500000 
157.500000 22.500000 202.500000 
127.500000 37.500000 187.500000 
142.500000 37.500000 187.500000 
127.500000 52.500000 187.500000 
127.500000 37.500000 202.500000 
142.500000 52.500000 187.500000 
142.500000 37.500000 202.500000 
142.500000 52.500000 202.500000 
142.500000 7.500000 217.500000 
142.500000 22.500000 217.500000 
157.500000 37.500000 202.500000 
157.500000 52.500000 202.500000 
157.500000 7.500000 217.500000 
172.500000 7.500000 217.500000 
157.500000 22.500000 217.500000 
172.500000 22.500000 217.500000 
172.500000 7.500000 232.500000 
157.500000 22.500000 232.500000 
172.500000 22.500000 232.500000 
142.500000 37.500000 217.500000 
142.500000 52.500000 217.500000 
142.500000 52.500000 232.500000 
157.500000 37.500000 217.500000 
172.500000 37.500000 217.500000 
157.500000 52.500000 217.500000 
157.500000 37.500000 232.500000 
172.500000 52.500000 217.500000 
172.500000 37.500000 232.500000 
157.500000 52.500000 232.500000 
172.500000 52.500000 232.500000 
187.500000 7.500000 217.500000 
187.500000 22.500000 217.500000 
187.500000 7.500000 232.500000 
202.500000 7.500000 232.500000 
187.500000 22.500000 232.500000 
202.500000 22.500000 232.500000 
217.500000 7.500000 232.500000 
217.500000 22.500000 232.500000 
187.500000 37.500000 217.500000 
187.500000 37.500000 232.500000 
202.500000 37.500000 232.500000 
187.500000 52.500000 232.500000 
202.500000 52.500000 232.500000 
217.500000 37.500000 232.500000 
217.500000 52.500000 232.500000 
157.500000 67.500000 232.500000 
172.500000 67.500000 232.500000 
187.500000 67.500000 232.500000 
202.500000 67.500000 232.500000 
187.500000 82.500000 232.500000 
202.500000 82.500000 232.500000 
217.500000 67.500000 232.500000 
217.500000 82.500000 232.500000 
472.500000 157.500000 202.500000 
457.500000 172.500000 202.500000 
472.500000 172.500000 202.500000 
457.500000 142.500000 232.500000 
472.500000 142.500000 232.500000 
427.500000 157.500000 232.500000 
442.500000 172.500000 217.500000 
442.500000 157.500000 232.500000 
457.500000 157.500000 217.500000 
472.500000 157.500000 217.500000 
457.500000 172.500000 217.500000 
457.500000 157.500000 232.500000 
472.500000 172.500000 217.500000 
472.500000 157.500000 232.500000 
457.500000 187.500000 202.500000 
472.500000 187.500000 202.500000 
7.500000 7.500000 292.500000 
22.500000 7.500000 292.500000 
37.500000 7.500000 292.500000 
7.500000 7.500000 307.500000 
22.500000 7.500000 307.500000 
7.500000 7.500000 322.500000 
22.500000 7.500000 322.500000 
37.500000 7.500000 307.500000 
37.500000 7.500000 322.500000 
52.500000 7.500000 322.500000 
7.500000 7.500000 337.500000 
22.500000 7.500000 337.500000 
7.500000 7.500000 352.500000 
22.500000 22.500000 337.500000 
22.500000 7.500000 352.500000 
7.500000 22.500000 352.500000 
22.500000 22.500000 352.500000 
37.500000 7.500000 337.500000 
52.500000 7.500000 337.500000 
37.500000 22.500000 337.500000 
37.500000 7.500000 352.500000 
52.500000 22.500000 337.500000 
52.500000 7.500000 352.500000 
37.500000 22.500000 352.500000 
52.500000 22.500000 352.500000 
67.500000 7.500000 352.500000 
82.500000 7.500000 352.500000 
67.500000 22.500000 352.500000 
187.500000 22.500000 247.500000 
202.500000 22.500000 247.500000 
217.500000 7.500000 247.500000 
232.500000 7.500000 247.500000 
217.500000 22.500000 247.500000 
232.500000 22.500000 247.500000 
217.500000 22.500000 262.500000 
232.500000 22.500000 262.500000 
187.500000 37.500000 247.500000 
202.500000 37.500000 247.500000 
187.500000 52.500000 247.500000 
202.500000 52.500000 247.500000 
217.500000 37.500000 247.500000 
232.500000 37.500000 247.500000 
217.500000 52.500000 247.500000 
217.500000 37.500000 262.500000 
232.500000 52.500000 247.500000 
232.500000 37.500000 262.500000 
217.500000 52.500000 262.500000 
232.500000 52.500000 262.500000 
187.500000 67.500000 247.500000 
202.500000 67.500000 247.500000 
187.500000 82.500000 247.500000 
202.500000 82.500000 247.500000 
217.500000 67.500000 247.500000 
232.500000 67.500000 247.500000 
217.500000 82.500000 247.500000 
217.500000 67.500000 262.500000 
232.500000 82.500000 247.500000 
232.500000 67.500000 262.500000 
232.500000 82.500000 262.500000 
232.500000 97.500000 262.500000 
7.500000 7.500000 367.500000 
22.500000 7.500000 367.500000 
7.500000 22.500000 367.500000 
7.500000 7.500000 382.500000 
22.500000 22.500000 367.500000 
22.500000 7.500000 382.500000 
7.500000 22.500000 382.500000 
22.500000 22.500000 382.500000 
37.500000 7.500000 367.500000 
52.500000 7.500000 367.500000 
37.500000 22.500000 367.500000 
37.500000 7.500000 382.500000 
52.500000 22.500000 367.500000 
37.500000 22.500000 382.500000 
7.500000 7.500000 397.500000 
22.500000 7.500000 397.500000 
7.500000 22.500000 397.500000 
7.500000 7.500000 412.500000 
22.500000 22.500000 397.500000 
22.500000 7.500000 412.500000 
7.500000 22.500000 412.500000 
22.500000 22.500000 412.500000 
37.500000 7.500000 397.500000 
52.500000 7.500000 397.500000 
37.500000 22.500000 397.500000 
37.500000 7.500000 412.500000 
52.500000 22.500000 397.500000 
52.500000 7.500000 412.500000 
37.500000 22.500000 412.500000 
7.500000 37.500000 412.500000 
22.500000 37.500000 412.500000 
52.500000 37.500000 412.500000 
67.500000 7.500000 367.500000 
82.500000 7.500000 367.500000 
67.500000 22.500000 367.500000 
67.500000 7.500000 382.500000 
82.500000 22.500000 367.500000 
82.500000 7.500000 382.500000 
67.500000 22.500000 382.500000 
82.500000 22.500000 382.500000 
97.500000 7.500000 367.500000 
97.500000 7.500000 382.500000 
97.500000 22.500000 382.500000 
67.500000 7.500000 397.500000 
82.500000 7.500000 397.500000 
67.500000 22.500000 397.500000 
82.500000 22.500000 397.500000 
82.500000 7.500000 412.500000 
82.500000 22.500000 412.500000 
97.500000 7.500000 397.500000 
112.500000 7.500000 397.500000 
97.500000 22.500000 397.500000 
97.500000 7.500000 412.500000 
112.500000 7.500000 412.500000 
97.500000 22.500000 412.500000 
67.500000 37.500000 397.500000 
82.500000 37.500000 397.500000 
82.500000 37.500000 412.500000 
97.500000 37.500000 412.500000 
7.500000 7.500000 427.500000 
22.500000 7.500000 427.500000 
7.500000 22.500000 427.500000 
7.500000 7.500000 442.500000 
22.500000 22.500000 427.500000 
22.500000 7.500000 442.500000 
7.500000 22.500000 442.500000 
22.500000 22.500000 442.500000 
37.500000 7.500000 427.500000 
52.500000 7.500000 427.500000 
37.500000 22.500000 427.500000 
37.500000 7.500000 442.500000 
52.500000 7.500000 442.500000 
37.500000 22.500000 442.500000 
52.500000 22.500000 442.500000 
7.500000 37.500000 427.500000 
22.500000 37.500000 427.500000 
7.500000 37.500000 442.500000 
22.500000 37.500000 442.500000 
7.500000 7.500000 457.500000 
22.500000 7.500000 457.500000 
7.500000 22.500000 457.500000 
7.500000 7.500000 472.500000 
22.500000 22.500000 457.500000 
22.500000 7.500000 472.500000 
7.500000 22.500000 472.500000 
22.500000 22.500000 472.500000 
37.500000 37.500000 427.500000 
37.500000 37.500000 442.500000 
37.500000 7.500000 457.500000 
52.500000 7.500000 457.500000 
37.500000 22.500000 457.500000 
37.500000 7.500000 472.500000 
52.500000 22.500000 457.500000 
52.500000 7.500000 472.500000 
37.500000 22.500000 472.500000 
52.500000 22.500000 472.500000 
7.500000 37.500000 457.500000 
22.500000 37.500000 457.500000 
7.500000 52.500000 457.500000 
7.500000 37.500000 472.500000 
22.500000 52.500000 457.500000 
22.500000 37.500000 472.500000 
22.500000 52.500000 472.500000 
37.500000 37.500000 457.500000 
52.500000 37.500000 457.500000 
37.500000 52.500000 457.500000 
37.500000 37.500000 472.500000 
52.500000 37.500000 472.500000 
37.500000 52.500000 472.500000 
52.500000 52.500000 472.500000 
82.500000 7.500000 427.500000 
67.500000 22.500000 427.500000 
67.500000 7.500000 442.500000 
82.500000 22.500000 427.500000 
82.500000 7.500000 442.500000 
82.500000 22.500000 442.500000 
97.500000 7.500000 427.500000 
112.500000 7.500000 427.500000 
97.500000 22.500000 427.500000 
97.500000 7.500000 442.500000 
112.500000 7.500000 442.500000 
97.500000 22.500000 442.500000 
112.500000 22.500000 442.500000 
67.500000 37.500000 427.500000 
82.500000 37.500000 427.500000 
67.500000 37.500000 442.500000 
82.500000 37.500000 442.500000 
67.500000 7.500000 457.500000 
67.500000 7.500000 472.500000 
82.500000 22.500000 457.500000 
82.500000 7.500000 472.500000 
67.500000 22.500000 472.500000 
97.500000 37.500000 427.500000 
97.500000 37.500000 442.500000 
97.500000 7.500000 457.500000 
112.500000 7.500000 457.500000 
97.500000 22.500000 457.500000 
112.500000 22.500000 457.500000 
112.500000 7.500000 472.500000 
112.500000 22.500000 472.500000 
82.500000 37.500000 457.500000 
67.500000 52.500000 457.500000 
82.500000 52.500000 457.500000 
97.500000 37.500000 457.500000 
112.500000 37.500000 457.500000 
97.500000 52.500000 457.500000 
112.500000 52.500000 457.500000 
112.500000 37.500000 472.500000 
97.500000 52.500000 472.500000 
112.500000 52.500000 472.500000 
127.500000 7.500000 442.500000 
127.500000 22.500000 442.500000 
127.500000 7.500000 457.500000 
142.500000 7.500000 457.500000 
127.500000 22.500000 457.500000 
127.500000 7.500000 472.500000 
142.500000 22.500000 457.500000 
142.500000 7.500000 472.500000 
127.500000 22.500000 472.500000 
142.500000 22.500000 472.500000 
157.500000 7.500000 457.500000 
157.500000 22.500000 457.500000 
157.500000 7.500000 472.500000 
172.500000 7.500000 472.500000 
157.500000 22.500000 472.500000 
172.500000 22.500000 472.500000 
127.500000 37.500000 457.500000 
142.500000 37.500000 457.500000 
127.500000 52.500000 457.500000 
127.500000 37.500000 472.500000 
142.500000 37.500000 472.500000 
127.500000 52.500000 472.500000 
142.500000 52.500000 472.500000 
157.500000 37.500000 472.500000 
157.500000 52.500000 472.500000 
247.500000 7.500000 247.500000 
262.500000 7.500000 247.500000 
247.500000 22.500000 247.500000 
262.500000 22.500000 247.500000 
247.500000 22.500000 262.500000 
262.500000 22.500000 262.500000 
277.500000 22.500000 262.500000 
292.500000 22.500000 262.500000 
247.500000 37.500000 247.500000 
262.500000 37.500000 247.500000 
247.500000 52.500000 247.500000 
247.500000 37.500000 262.500000 
262.500000 52.500000 247.500000 
262.500000 37.500000 262.500000 
247.500000 52.500000 262.500000 
262.500000 52.500000 262.500000 
277.500000 37.500000 262.500000 
292.500000 37.500000 262.500000 
277.500000 52.500000 262.500000 
292.500000 52.500000 262.500000 
262.500000 52.500000 277.500000 
277.500000 37.500000 277.500000 
292.500000 37.500000 277.500000 
277.500000 52.500000 277.500000 
292.500000 52.500000 277.500000 
307.500000 37.500000 262.500000 
322.500000 37.500000 262.500000 
307.500000 52.500000 262.500000 
322.500000 52.500000 262.500000 
337.500000 52.500000 262.500000 
307.500000 37.500000 277.500000 
322.500000 37.500000 277.500000 
307.500000 52.500000 277.500000 
322.500000 52.500000 277.500000 
337.500000 52.500000 277.500000 
247.500000 67.500000 247.500000 
262.500000 67.500000 247.500000 
247.500000 82.500000 247.500000 
247.500000 67.500000 262.500000 
262.500000 67.500000 262.500000 
247.500000 82.500000 262.500000 
262.500000 82.500000 262.500000 
277.500000 67.500000 262.500000 
292.500000 67.500000 262.500000 
277.500000 82.500000 262.500000 
292.500000 82.500000 262.500000 
247.500000 97.500000 262.500000 
262.500000 97.500000 262.500000 
247.500000 112.500000 262.500000 
262.500000 112.500000 262.500000 
262.500000 67.500000 277.500000 
247.500000 82.500000 277.500000 
262.500000 82.500000 277.500000 
277.500000 97.500000 262.500000 
292.500000 97.500000 262.500000 
277.500000 112.500000 262.500000 
292.500000 112.500000 262.500000 
277.500000 67.500000 277.500000 
292.500000 67.500000 277.500000 
277.500000 82.500000 277.500000 
292.500000 82.500000 277.500000 
247.500000 97.500000 277.500000 
262.500000 97.500000 277.500000 
262.500000 112.500000 277.500000 
277.500000 97.500000 277.500000 
292.500000 97.500000 277.500000 
277.500000 112.500000 277.500000 
292.500000 112.500000 277.500000 
307.500000 67.500000 262.500000 
322.500000 67.500000 262.500000 
307.500000 82.500000 262.500000 
322.500000 82.500000 262.500000 
337.500000 67.500000 262.500000 
352.500000 67.500000 262.500000 
337.500000 82.500000 262.500000 
352.500000 82.500000 262.500000 
307.500000 97.500000 262.500000 
322.500000 97.500000 262.500000 
307.500000 112.500000 262.500000 
322.500000 112.500000 262.500000 
307.500000 67.500000 277.500000 
322.500000 67.500000 277.500000 
307.500000 82.500000 277.500000 
322.500000 82.500000 277.500000 
337.500000 97.500000 262.500000 
352.500000 97.500000 262.500000 
337.500000 112.500000 262.500000 
352.500000 112.500000 262.500000 
337.500000 67.500000 277.500000 
352.500000 67.500000 277.500000 
337.500000 82.500000 277.500000 
352.500000 82.500000 277.500000 
307.500000 97.500000 277.500000 
322.500000 97.500000 277.500000 
307.500000 112.500000 277.500000 
322.500000 112.500000 277.500000 
337.500000 97.500000 277.500000 
352.500000 97.500000 277.500000 
337.500000 112.500000 277.500000 
352.500000 112.500000 277.500000 
367.500000 67.500000 262.500000 
367.500000 82.500000 262.500000 
382.500000 82.500000 262.500000 
397.500000 82.500000 262.500000 
367.500000 97.500000 262.500000 
382.500000 97.500000 262.500000 
367.500000 112.500000 262.500000 
382.500000 112.500000 262.500000 
367.500000 67.500000 277.500000 
367.500000 82.500000 277.500000 
382.500000 82.500000 277.500000 
397.500000 97.500000 262.500000 
412.500000 112.500000 247.500000 
412.500000 97.500000 262.500000 
397.500000 112.500000 262.500000 
412.500000 112.500000 262.500000 
397.500000 82.500000 277.500000 
367.500000 97.500000 277.500000 
382.500000 97.500000 277.500000 
367.500000 112.500000 277.500000 
382.500000 112.500000 277.500000 
397.500000 97.500000 277.500000 
412.500000 97.500000 277.500000 
397.500000 112.500000 277.500000 
412.500000 112.500000 277.500000 
427.500000 112.500000 247.500000 
442.500000 112.500000 247.500000 
427.500000 112.500000 262.500000 
442.500000 112.500000 262.500000 
247.500000 127.500000 262.500000 
262.500000 127.500000 262.500000 
262.500000 142.500000 262.500000 
277.500000 127.500000 262.500000 
292.500000 127.500000 262.500000 
277.500000 142.500000 262.500000 
292.500000 142.500000 262.500000 
262.500000 157.500000 262.500000 
262.500000 127.500000 277.500000 
277.500000 157.500000 262.500000 
292.500000 157.500000 262.500000 
277.500000 127.500000 277.500000 
292.500000 127.500000 277.500000 
277.500000 142.500000 277.500000 
292.500000 142.500000 277.500000 
277.500000 157.500000 277.500000 
292.500000 157.500000 277.500000 
307.500000 127.500000 262.500000 
322.500000 127.500000 262.500000 
307.500000 142.500000 262.500000 
322.500000 142.500000 262.500000 
337.500000 127.500000 262.500000 
352.500000 127.500000 262.500000 
337.500000 142.500000 262.500000 
352.500000 142.500000 262.500000 
307.500000 157.500000 262.500000 
322.500000 157.500000 262.500000 
307.500000 127.500000 277.500000 
322.500000 127.500000 277.500000 
307.500000 142.500000 277.500000 
322.500000 142.500000 277.500000 
337.500000 157.500000 262.500000 
352.500000 157.500000 262.500000 
337.500000 127.500000 277.500000 
352.500000 127.500000 277.500000 
337.500000 142.500000 277.500000 
352.500000 142.500000 277.500000 
307.500000 157.500000 277.500000 
322.500000 157.500000 277.500000 
337.500000 157.500000 277.500000 
352.500000 157.500000 277.500000 
382.500000 127.500000 262.500000 
382.500000 142.500000 262.500000 
412.500000 127.500000 247.500000 
397.500000 127.500000 262.500000 
412.500000 142.500000 247.500000 
412.500000 127.500000 262.500000 
397.500000 142.500000 262.500000 
412.500000 142.500000 262.500000 
382.500000 157.500000 262.500000 
367.500000 127.500000 277.500000 
382.500000 127.500000 277.500000 
367.500000 142.500000 277.500000 
382.500000 142.500000 277.500000 
412.500000 157.500000 247.500000 
397.500000 157.500000 262.500000 
412.500000 157.500000 262.500000 
397.500000 127.500000 277.500000 
412.500000 127.500000 277.500000 
397.500000 142.500000 277.500000 
412.500000 142.500000 277.500000 
367.500000 157.500000 277.500000 
382.500000 157.500000 277.500000 
397.500000 157.500000 277.500000 
412.500000 157.500000 277.500000 
427.500000 127.500000 247.500000 
442.500000 127.500000 247.500000 
427.500000 142.500000 247.500000 
427.500000 127.500000 262.500000 
442.500000 142.500000 247.500000 
442.500000 127.500000 262.500000 
427.500000 142.500000 262.500000 
442.500000 142.500000 262.500000 
457.500000 127.500000 247.500000 
472.500000 127.500000 247.500000 
457.500000 142.500000 247.500000 
472.500000 142.500000 247.500000 
427.500000 157.500000 247.500000 
442.500000 157.500000 247.500000 
427.500000 157.500000 262.500000 
442.500000 157.500000 262.500000 
457.500000 157.500000 247.500000 
472.500000 157.500000 247.500000 
502.500000 172.500000 157.500000 
487.500000 172.500000 172.500000 
502.500000 172.500000 172.500000 
517.500000 172.500000 157.500000 
502.500000 187.500000 142.500000 
517.500000 187.500000 127.500000 
532.500000 187.500000 127.500000 
517.500000 187.500000 142.500000 
532.500000 187.500000 142.500000 
502.500000 187.500000 157.500000 
487.500000 187.500000 172.500000 
502.500000 187.500000 172.500000 
517.500000 187.500000 157.500000 
517.500000 187.500000 172.500000 
487.500000 157.500000 187.500000 
502.500000 157.500000 187.500000 
487.500000 172.500000 187.500000 
487.500000 157.500000 202.500000 
502.500000 172.500000 187.500000 
487.500000 172.500000 202.500000 
487.500000 142.500000 232.500000 
487.500000 157.500000 217.500000 
487.500000 172.500000 217.500000 
487.500000 157.500000 232.500000 
487.500000 187.500000 187.500000 
502.500000 187.500000 187.500000 
487.500000 187.500000 202.500000 
487.500000 142.500000 247.500000 
487.500000 157.500000 247.500000 
22.500000 7.500000 487.500000 
7.500000 22.500000 487.500000 
52.500000 7.500000 487.500000 
52.500000 22.500000 487.500000 
52.500000 22.500000 502.500000 
7.500000 37.500000 487.500000 
7.500000 37.500000 502.500000 
37.500000 37.500000 487.500000 
52.500000 37.500000 487.500000 
37.500000 52.500000 487.500000 
37.500000 37.500000 502.500000 
52.500000 52.500000 487.500000 
52.500000 37.500000 502.500000 
37.500000 52.500000 502.500000 
52.500000 52.500000 502.500000 
52.500000 22.500000 517.500000 
52.500000 22.500000 532.500000 
7.500000 52.500000 532.500000 
52.500000 37.500000 517.500000 
37.500000 52.500000 517.500000 
52.500000 52.500000 517.500000 
52.500000 37.500000 532.500000 
37.500000 52.500000 532.500000 
52.500000 52.500000 532.500000 
67.500000 7.500000 487.500000 
82.500000 7.500000 487.500000 
67.500000 22.500000 487.500000 
67.500000 7.500000 502.500000 
82.500000 22.500000 487.500000 
82.500000 7.500000 502.500000 
67.500000 22.500000 502.500000 
82.500000 22.500000 502.500000 
97.500000 7.500000 487.500000 
97.500000 7.500000 502.500000 
112.500000 7.500000 502.500000 
97.500000 22.500000 502.500000 
67.500000 37.500000 487.500000 
82.500000 37.500000 487.500000 
67.500000 52.500000 487.500000 
67.500000 37.500000 502.500000 
82.500000 37.500000 502.500000 
67.500000 52.500000 502.500000 
82.500000 52.500000 502.500000 
67.500000 7.500000 517.500000 
82.500000 7.500000 517.500000 
67.500000 22.500000 517.500000 
67.500000 7.500000 532.500000 
82.500000 22.500000 517.500000 
82.500000 7.500000 532.500000 
67.500000 22.500000 532.500000 
82.500000 22.500000 532.500000 
112.500000 37.500000 487.500000 
97.500000 37.500000 502.500000 
112.500000 52.500000 487.500000 
97.500000 7.500000 517.500000 
112.500000 7.500000 517.500000 
97.500000 22.500000 517.500000 
97.500000 7.500000 532.500000 
112.500000 7.500000 532.500000 
97.500000 22.500000 532.500000 
112.500000 22.500000 532.500000 
67.500000 37.500000 517.500000 
82.500000 37.500000 517.500000 
67.500000 37.500000 532.500000 
82.500000 52.500000 517.500000 
82.500000 37.500000 532.500000 
67.500000 52.500000 532.500000 
82.500000 52.500000 532.500000 
97.500000 52.500000 517.500000 
97.500000 37.500000 532.500000 
52.500000 67.500000 502.500000 
22.500000 67.500000 517.500000 
37.500000 67.500000 517.500000 
37.500000 67.500000 532.500000 
52.500000 67.500000 532.500000 
52.500000 22.500000 547.500000 
7.500000 52.500000 547.500000 
52.500000 37.500000 547.500000 
37.500000 52.500000 547.500000 
52.500000 52.500000 547.500000 
67.500000 67.500000 502.500000 
112.500000 67.500000 502.500000 
67.500000 67.500000 517.500000 
82.500000 67.500000 517.500000 
82.500000 7.500000 547.500000 
67.500000 22.500000 547.500000 
82.500000 22.500000 547.500000 
82.500000 22.500000 562.500000 
97.500000 7.500000 547.500000 
112.500000 7.500000 547.500000 
97.500000 22.500000 547.500000 
97.500000 7.500000 562.500000 
112.500000 22.500000 547.500000 
112.500000 7.500000 562.500000 
97.500000 22.500000 562.500000 
112.500000 22.500000 562.500000 
67.500000 37.500000 547.500000 
82.500000 37.500000 547.500000 
67.500000 52.500000 547.500000 
67.500000 37.500000 562.500000 
82.500000 52.500000 547.500000 
82.500000 37.500000 562.500000 
67.500000 52.500000 562.500000 
82.500000 52.500000 562.500000 
97.500000 37.500000 547.500000 
112.500000 37.500000 547.500000 
97.500000 52.500000 547.500000 
97.500000 37.500000 562.500000 
112.500000 37.500000 562.500000 
97.500000 52.500000 562.500000 
112.500000 52.500000 562.500000 
112.500000 22.500000 577.500000 
97.500000 37.500000 577.500000 
112.500000 37.500000 577.500000 
97.500000 52.500000 577.500000 
112.500000 52.500000 577.500000 
22.500000 67.500000 547.500000 
37.500000 67.500000 547.500000 
52.500000 67.500000 547.500000 
52.500000 67.500000 562.500000 
52.500000 82.500000 562.500000 
67.500000 67.500000 562.500000 
82.500000 67.500000 562.500000 
67.500000 82.500000 562.500000 
82.500000 82.500000 562.500000 
97.500000 67.500000 562.500000 
112.500000 67.500000 562.500000 
97.500000 82.500000 562.500000 
112.500000 82.500000 562.500000 
97.500000 67.500000 577.500000 
112.500000 67.500000 577.500000 
97.500000 82.500000 577.500000 
112.500000 82.500000 577.500000 
127.500000 7.500000 487.500000 
142.500000 7.500000 487.500000 
127.500000 22.500000 487.500000 
142.500000 22.500000 487.500000 
142.500000 7.500000 502.500000 
142.500000 22.500000 502.500000 
157.500000 7.500000 487.500000 
172.500000 7.500000 487.500000 
157.500000 22.500000 487.500000 
157.500000 7.500000 502.500000 
172.500000 22.500000 487.500000 
172.500000 7.500000 502.500000 
157.500000 22.500000 502.500000 
172.500000 22.500000 502.500000 
127.500000 37.500000 487.500000 
142.500000 37.500000 487.500000 
127.500000 52.500000 487.500000 
127.500000 37.500000 502.500000 
142.500000 52.500000 487.500000 
142.500000 37.500000 502.500000 
127.500000 52.500000 502.500000 
142.500000 52.500000 502.500000 
127.500000 7.500000 532.500000 
157.500000 37.500000 487.500000 
172.500000 37.500000 487.500000 
157.500000 52.500000 487.500000 
157.500000 37.500000 502.500000 
172.500000 52.500000 487.500000 
172.500000 37.500000 502.500000 
157.500000 52.500000 502.500000 
172.500000 52.500000 502.500000 
157.500000 7.500000 517.500000 
172.500000 7.500000 517.500000 
157.500000 22.500000 517.500000 
172.500000 22.500000 517.500000 
172.500000 22.500000 532.500000 
142.500000 37.500000 517.500000 
142.500000 52.500000 517.500000 
157.500000 37.500000 517.500000 
172.500000 37.500000 517.500000 
157.500000 52.500000 517.500000 
157.500000 37.500000 532.500000 
172.500000 52.500000 517.500000 
172.500000 37.500000 532.500000 
157.500000 52.500000 532.500000 
172.500000 52.500000 532.500000 
187.500000 7.500000 517.500000 
202.500000 7.500000 517.500000 
187.500000 22.500000 517.500000 
202.500000 22.500000 517.500000 
202.500000 7.500000 532.500000 
187.500000 22.500000 532.500000 
202.500000 22.500000 532.500000 
217.500000 7.500000 517.500000 
217.500000 7.500000 532.500000 
217.500000 22.500000 532.500000 
187.500000 37.500000 517.500000 
202.500000 37.500000 517.500000 
187.500000 52.500000 517.500000 
187.500000 37.500000 532.500000 
202.500000 37.500000 532.500000 
187.500000 52.500000 532.500000 
202.500000 52.500000 532.500000 
127.500000 67.500000 502.500000 
142.500000 67.500000 502.500000 
157.500000 67.500000 502.500000 
172.500000 67.500000 502.500000 
127.500000 67.500000 517.500000 
142.500000 67.500000 517.500000 
157.500000 67.500000 517.500000 
172.500000 67.500000 517.500000 
157.500000 67.500000 532.500000 
172.500000 67.500000 532.500000 
127.500000 7.500000 547.500000 
127.500000 22.500000 547.500000 
127.500000 7.500000 562.500000 
142.500000 7.500000 562.500000 
127.500000 22.500000 562.500000 
142.500000 22.500000 562.500000 
127.500000 37.500000 562.500000 
142.500000 37.500000 562.500000 
127.500000 52.500000 562.500000 
127.500000 7.500000 577.500000 
142.500000 7.500000 577.500000 
127.500000 22.500000 577.500000 
142.500000 22.500000 577.500000 
142.500000 7.500000 592.500000 
127.500000 22.500000 592.500000 
142.500000 22.500000 592.500000 
172.500000 37.500000 547.500000 
172.500000 52.500000 547.500000 
157.500000 7.500000 592.500000 
172.500000 7.500000 592.500000 
157.500000 22.500000 592.500000 
172.500000 22.500000 592.500000 
127.500000 37.500000 577.500000 
142.500000 37.500000 577.500000 
127.500000 52.500000 577.500000 
127.500000 37.500000 592.500000 
142.500000 52.500000 577.500000 
142.500000 37.500000 592.500000 
127.500000 52.500000 592.500000 
142.500000 52.500000 592.500000 
157.500000 37.500000 592.500000 
172.500000 37.500000 592.500000 
157.500000 52.500000 592.500000 
172.500000 52.500000 592.500000 
187.500000 67.500000 517.500000 
187.500000 67.500000 532.500000 
187.500000 22.500000 547.500000 
202.500000 22.500000 547.500000 
217.500000 7.500000 547.500000 
232.500000 7.500000 547.500000 
217.500000 22.500000 547.500000 
232.500000 22.500000 547.500000 
232.500000 22.500000 562.500000 
187.500000 37.500000 547.500000 
202.500000 37.500000 547.500000 
187.500000 52.500000 547.500000 
202.500000 52.500000 547.500000 
202.500000 37.500000 562.500000 
187.500000 52.500000 562.500000 
202.500000 52.500000 562.500000 
187.500000 7.500000 577.500000 
187.500000 22.500000 577.500000 
187.500000 7.500000 592.500000 
202.500000 22.500000 577.500000 
202.500000 7.500000 592.500000 
187.500000 22.500000 592.500000 
202.500000 22.500000 592.500000 
217.500000 37.500000 547.500000 
232.500000 37.500000 547.500000 
217.500000 52.500000 547.500000 
217.500000 37.500000 562.500000 
232.500000 52.500000 547.500000 
232.500000 37.500000 562.500000 
217.500000 52.500000 562.500000 
232.500000 52.500000 562.500000 
217.500000 7.500000 577.500000 
232.500000 7.500000 577.500000 
217.500000 22.500000 577.500000 
217.500000 7.500000 592.500000 
232.500000 22.500000 577.500000 
232.500000 7.500000 592.500000 
217.500000 22.500000 592.500000 
232.500000 22.500000 592.500000 
202.500000 37.500000 577.500000 
187.500000 52.500000 577.500000 
187.500000 37.500000 592.500000 
202.500000 52.500000 577.500000 
202.500000 37.500000 592.500000 
187.500000 52.500000 592.500000 
202.500000 52.500000 592.500000 
217.500000 37.500000 577.500000 
232.500000 37.500000 577.500000 
217.500000 52.500000 577.500000 
217.500000 37.500000 592.500000 
232.500000 52.500000 577.500000 
232.500000 37.500000 592.500000 
217.500000 52.500000 592.500000 
232.500000 52.500000 592.500000 
127.500000 67.500000 562.500000 
127.500000 82.500000 562.500000 
172.500000 67.500000 547.500000 
172.500000 82.500000 547.500000 
172.500000 67.500000 562.500000 
172.500000 82.500000 562.500000 
127.500000 67.500000 577.500000 
142.500000 67.500000 577.500000 
127.500000 82.500000 577.500000 
127.500000 67.500000 592.500000 
142.500000 82.500000 577.500000 
142.500000 67.500000 592.500000 
127.500000 82.500000 592.500000 
142.500000 82.500000 592.500000 
157.500000 67.500000 577.500000 
157.500000 82.500000 577.500000 
157.500000 67.500000 592.500000 
172.500000 67.500000 592.500000 
157.500000 82.500000 592.500000 
172.500000 82.500000 592.500000 
127.500000 97.500000 592.500000 
142.500000 97.500000 592.500000 
127.500000 112.500000 592.500000 
142.500000 112.500000 592.500000 
157.500000 97.500000 592.500000 
157.500000 112.500000 592.500000 
187.500000 67.500000 547.500000 
202.500000 67.500000 547.500000 
187.500000 82.500000 547.500000 
187.500000 67.500000 562.500000 
202.500000 82.500000 547.500000 
202.500000 67.500000 562.500000 
187.500000 82.500000 562.500000 
202.500000 82.500000 562.500000 
217.500000 67.500000 547.500000 
232.500000 67.500000 547.500000 
217.500000 67.500000 562.500000 
232.500000 67.500000 562.500000 
217.500000 82.500000 562.500000 
232.500000 82.500000 562.500000 
187.500000 67.500000 577.500000 
202.500000 67.500000 577.500000 
187.500000 82.500000 577.500000 
187.500000 67.500000 592.500000 
202.500000 82.500000 577.500000 
202.500000 67.500000 592.500000 
187.500000 82.500000 592.500000 
202.500000 82.500000 592.500000 
217.500000 67.500000 577.500000 
232.500000 67.500000 577.500000 
217.500000 82.500000 577.500000 
217.500000 67.500000 592.500000 
232.500000 82.500000 577.500000 
232.500000 67.500000 592.500000 
217.500000 82.500000 592.500000 
232.500000 82.500000 592.500000 
187.500000 97.500000 592.500000 
202.500000 97.500000 592.500000 
187.500000 112.500000 592.500000 
202.500000 112.500000 592.500000 
217.500000 97.500000 592.500000 
232.500000 97.500000 592.500000 
217.500000 112.500000 592.500000 
232.500000 112.500000 592.500000 
127.500000 127.500000 592.500000 
142.500000 127.500000 592.500000 
157.500000 127.500000 592.500000 
187.500000 127.500000 592.500000 
202.500000 127.500000 592.500000 
217.500000 127.500000 592.500000 
232.500000 127.500000 592.500000 
232.500000 157.500000 592.500000 
142.500000 22.500000 607.500000 
172.500000 7.500000 607.500000 
157.500000 22.500000 607.500000 
172.500000 22.500000 607.500000 
142.500000 37.500000 607.500000 
142.500000 52.500000 607.500000 
157.500000 37.500000 607.500000 
172.500000 37.500000 607.500000 
157.500000 52.500000 607.500000 
172.500000 52.500000 607.500000 
172.500000 37.500000 622.500000 
157.500000 52.500000 622.500000 
172.500000 52.500000 622.500000 
187.500000 7.500000 607.500000 
202.500000 7.500000 607.500000 
187.500000 22.500000 607.500000 
202.500000 22.500000 607.500000 
217.500000 7.500000 607.500000 
232.500000 7.500000 607.500000 
217.500000 22.500000 607.500000 
232.500000 22.500000 607.500000 
187.500000 37.500000 607.500000 
202.500000 37.500000 607.500000 
187.500000 52.500000 607.500000 
187.500000 37.500000 622.500000 
202.500000 52.500000 607.500000 
202.500000 37.500000 622.500000 
187.500000 52.500000 622.500000 
202.500000 52.500000 622.500000 
217.500000 37.500000 607.500000 
232.500000 37.500000 607.500000 
217.500000 52.500000 607.500000 
217.500000 37.500000 622.500000 
232.500000 52.500000 607.500000 
232.500000 37.500000 622.500000 
217.500000 52.500000 622.500000 
232.500000 52.500000 622.500000 
202.500000 52.500000 637.500000 
217.500000 52.500000 637.500000 
232.500000 52.500000 637.500000 
142.500000 67.500000 607.500000 
142.500000 82.500000 607.500000 
157.500000 67.500000 607.500000 
172.500000 67.500000 607.500000 
157.500000 82.500000 607.500000 
157.500000 67.500000 622.500000 
172.500000 82.500000 607.500000 
172.500000 67.500000 622.500000 
157.500000 82.500000 622.500000 
172.500000 82.500000 622.500000 
157.500000 97.500000 607.500000 
172.500000 97.500000 607.500000 
157.500000 112.500000 607.500000 
172.500000 112.500000 607.500000 
172.500000 97.500000 622.500000 
172.500000 112.500000 622.500000 
172.500000 67.500000 637.500000 
172.500000 82.500000 637.500000 
172.500000 97.500000 637.500000 
172.500000 112.500000 637.500000 
187.500000 67.500000 607.500000 
202.500000 67.500000 607.500000 
187.500000 82.500000 607.500000 
187.500000 67.500000 622.500000 
202.500000 82.500000 607.500000 
202.500000 67.500000 622.500000 
187.500000 82.500000 622.500000 
202.500000 82.500000 622.500000 
217.500000 67.500000 607.500000 
232.500000 67.500000 607.500000 
217.500000 82.500000 607.500000 
217.500000 67.500000 622.500000 
232.500000 82.500000 607.500000 
232.500000 67.500000 622.500000 
217.500000 82.500000 622.500000 
232.500000 82.500000 622.500000 
187.500000 97.500000 607.500000 
202.500000 97.500000 607.500000 
187.500000 112.500000 607.500000 
187.500000 97.500000 622.500000 
202.500000 112.500000 607.500000 
202.500000 97.500000 622.500000 
187.500000 112.500000 622.500000 
202.500000 112.500000 622.500000 
187.500000 67.500000 637.500000 
202.500000 67.500000 637.500000 
187.500000 82.500000 637.500000 
202.500000 82.500000 637.500000 
202.500000 82.500000 652.500000 
217.500000 97.500000 607.500000 
232.500000 97.500000 607.500000 
217.500000 112.500000 607.500000 
217.500000 97.500000 622.500000 
232.500000 112.500000 607.500000 
217.500000 67.500000 637.500000 
232.500000 67.500000 637.500000 
217.500000 82.500000 637.500000 
217.500000 67.500000 652.500000 
232.500000 82.500000 637.500000 
232.500000 67.500000 652.500000 
217.500000 82.500000 652.500000 
232.500000 82.500000 652.500000 
187.500000 97.500000 637.500000 
202.500000 97.500000 637.500000 
187.500000 112.500000 637.500000 
187.500000 97.500000 652.500000 
202.500000 112.500000 637.500000 
202.500000 97.500000 652.500000 
187.500000 112.500000 652.500000 
202.500000 112.500000 652.500000 
217.500000 97.500000 637.500000 
232.500000 97.500000 637.500000 
217.500000 112.500000 637.500000 
217.500000 97.500000 652.500000 
232.500000 97.500000 652.500000 
217.500000 112.500000 652.500000 
232.500000 112.500000 652.500000 
232.500000 82.500000 667.500000 
232.500000 97.500000 667.500000 
232.500000 112.500000 667.500000 
157.500000 127.500000 607.500000 
172.500000 127.500000 607.500000 
157.500000 142.500000 607.500000 
172.500000 142.500000 607.500000 
172.500000 127.500000 622.500000 
157.500000 157.500000 607.500000 
172.500000 157.500000 607.500000 
172.500000 142.500000 637.500000 
172.500000 157.500000 637.500000 
172.500000 172.500000 637.500000 
187.500000 127.500000 607.500000 
202.500000 127.500000 607.500000 
187.500000 142.500000 607.500000 
202.500000 142.500000 607.500000 
217.500000 127.500000 607.500000 
232.500000 127.500000 607.500000 
217.500000 142.500000 607.500000 
232.500000 142.500000 607.500000 
187.500000 157.500000 607.500000 
187.500000 172.500000 607.500000 
187.500000 127.500000 637.500000 
187.500000 127.500000 652.500000 
202.500000 127.500000 652.500000 
217.500000 157.500000 607.500000 
232.500000 157.500000 607.500000 
217.500000 172.500000 607.500000 
232.500000 172.500000 607.500000 
217.500000 127.500000 637.500000 
217.500000 142.500000 637.500000 
217.500000 127.500000 652.500000 
232.500000 127.500000 652.500000 
217.500000 142.500000 652.500000 
232.500000 142.500000 652.500000 
217.500000 187.500000 607.500000 
232.500000 187.500000 607.500000 
232.500000 127.500000 667.500000 
247.500000 7.500000 547.500000 
247.500000 22.500000 547.500000 
262.500000 22.500000 547.500000 
247.500000 22.500000 562.500000 
262.500000 22.500000 562.500000 
247.500000 37.500000 547.500000 
262.500000 37.500000 547.500000 
247.500000 52.500000 547.500000 
247.500000 37.500000 562.500000 
262.500000 52.500000 547.500000 
262.500000 37.500000 562.500000 
247.500000 52.500000 562.500000 
262.500000 52.500000 562.500000 
247.500000 22.500000 577.500000 
262.500000 22.500000 577.500000 
247.500000 22.500000 592.500000 
262.500000 22.500000 592.500000 
277.500000 37.500000 562.500000 
277.500000 52.500000 562.500000 
277.500000 7.500000 577.500000 
277.500000 7.500000 592.500000 
292.500000 22.500000 592.500000 
247.500000 37.500000 577.500000 
262.500000 37.500000 577.500000 
247.500000 52.500000 577.500000 
247.500000 37.500000 592.500000 
262.500000 52.500000 577.500000 
262.500000 37.500000 592.500000 
247.500000 52.500000 592.500000 
262.500000 52.500000 592.500000 
277.500000 37.500000 577.500000 
277.500000 52.500000 577.500000 
277.500000 37.500000 592.500000 
292.500000 52.500000 577.500000 
292.500000 37.500000 592.500000 
277.500000 52.500000 592.500000 
292.500000 52.500000 592.500000 
307.500000 52.500000 592.500000 
247.500000 67.500000 562.500000 
262.500000 67.500000 562.500000 
247.500000 67.500000 577.500000 
262.500000 67.500000 577.500000 
247.500000 82.500000 577.500000 
247.500000 67.500000 592.500000 
262.500000 82.500000 577.500000 
262.500000 67.500000 592.500000 
247.500000 82.500000 592.500000 
262.500000 82.500000 592.500000 
277.500000 67.500000 577.500000 
292.500000 67.500000 577.500000 
277.500000 67.500000 592.500000 
292.500000 67.500000 592.500000 
277.500000 82.500000 592.500000 
292.500000 82.500000 592.500000 
247.500000 97.500000 592.500000 
262.500000 97.500000 592.500000 
247.500000 112.500000 592.500000 
277.500000 97.500000 592.500000 
292.500000 97.500000 592.500000 
307.500000 67.500000 592.500000 
247.500000 127.500000 592.500000 
262.500000 127.500000 592.500000 
262.500000 142.500000 592.500000 
277.500000 142.500000 592.500000 
247.500000 157.500000 592.500000 
247.500000 22.500000 607.500000 
262.500000 22.500000 607.500000 
247.500000 37.500000 607.500000 
247.500000 52.500000 607.500000 
247.500000 37.500000 622.500000 
262.500000 52.500000 607.500000 
247.500000 52.500000 622.500000 
277.500000 37.500000 607.500000 
292.500000 37.500000 607.500000 
277.500000 52.500000 607.500000 
292.500000 52.500000 607.500000 
247.500000 52.500000 637.500000 
262.500000 52.500000 637.500000 
307.500000 37.500000 607.500000 
307.500000 52.500000 607.500000 
307.500000 37.500000 622.500000 
322.500000 37.500000 622.500000 
307.500000 52.500000 622.500000 
322.500000 52.500000 622.500000 
337.500000 37.500000 622.500000 
352.500000 52.500000 607.500000 
352.500000 37.500000 622.500000 
337.500000 52.500000 622.500000 
352.500000 52.500000 622.500000 
247.500000 67.500000 607.500000 
262.500000 67.500000 607.500000 
247.500000 82.500000 607.500000 
247.500000 67.500000 622.500000 
262.500000 82.500000 607.500000 
247.500000 82.500000 622.500000 
277.500000 67.500000 607.500000 
292.500000 67.500000 607.500000 
277.500000 82.500000 607.500000 
292.500000 82.500000 607.500000 
292.500000 67.500000 622.500000 
292.500000 82.500000 622.500000 
247.500000 97.500000 607.500000 
262.500000 97.500000 607.500000 
247.500000 112.500000 607.500000 
262.500000 112.500000 607.500000 
247.500000 67.500000 637.500000 
262.500000 67.500000 637.500000 
247.500000 82.500000 637.500000 
247.500000 67.500000 652.500000 
262.500000 82.500000 637.500000 
262.500000 67.500000 652.500000 
247.500000 82.500000 652.500000 
262.500000 82.500000 652.500000 
277.500000 97.500000 607.500000 
292.500000 97.500000 607.500000 
277.500000 112.500000 607.500000 
277.500000 97.500000 622.500000 
292.500000 112.500000 607.500000 
292.500000 97.500000 622.500000 
277.500000 112.500000 622.500000 
292.500000 112.500000 622.500000 
277.500000 67.500000 652.500000 
292.500000 67.500000 652.500000 
277.500000 82.500000 652.500000 
292.500000 82.500000 652.500000 
247.500000 97.500000 652.500000 
262.500000 97.500000 652.500000 
247.500000 112.500000 652.500000 
262.500000 112.500000 652.500000 
277.500000 97.500000 652.500000 
292.500000 97.500000 652.500000 
277.500000 112.500000 652.500000 
292.500000 112.500000 652.500000 
307.500000 67.500000 607.500000 
307.500000 82.500000 607.500000 
307.500000 67.500000 622.500000 
322.500000 82.500000 607.500000 
322.500000 67.500000 622.500000 
307.500000 82.500000 622.500000 
322.500000 82.500000 622.500000 
337.500000 67.500000 607.500000 
352.500000 67.500000 607.500000 
337.500000 82.500000 607.500000 
337.500000 67.500000 622.500000 
352.500000 82.500000 607.500000 
352.500000 67.500000 622.500000 
337.500000 82.500000 622.500000 
352.500000 82.500000 622.500000 
307.500000 97.500000 607.500000 
307.500000 112.500000 607.500000 
307.500000 97.500000 622.500000 
322.500000 97.500000 622.500000 
307.500000 112.500000 622.500000 
322.500000 112.500000 622.500000 
307.500000 67.500000 652.500000 
307.500000 82.500000 652.500000 
322.500000 82.500000 652.500000 
337.500000 97.500000 607.500000 
352.500000 97.500000 607.500000 
337.500000 112.500000 607.500000 
337.500000 97.500000 622.500000 
352.500000 112.500000 607.500000 
352.500000 97.500000 622.500000 
