26.000000 14.000000 314.000000 
26.000000 10.000000 318.000000 
30.000000 14.000000 314.000000 
30.000000 10.000000 318.000000 
26.000000 14.000000 318.000000 
30.000000 14.000000 318.000000 
34.000000 2.000000 302.000000 
38.000000 2.000000 302.000000 
34.000000 2.000000 306.000000 
38.000000 2.000000 306.000000 
34.000000 6.000000 306.000000 
34.000000 2.000000 310.000000 
38.000000 2.000000 310.000000 
34.000000 6.000000 310.000000 
38.000000 6.000000 310.000000 
34.000000 10.000000 310.000000 
34.000000 2.000000 314.000000 
38.000000 2.000000 314.000000 
34.000000 6.000000 314.000000 
34.000000 2.000000 318.000000 
38.000000 6.000000 314.000000 
38.000000 2.000000 318.000000 
34.000000 6.000000 318.000000 
38.000000 6.000000 318.000000 
42.000000 2.000000 314.000000 
42.000000 6.000000 314.000000 
42.000000 2.000000 318.000000 
46.000000 2.000000 318.000000 
42.000000 6.000000 318.000000 
34.000000 10.000000 314.000000 
38.000000 10.000000 314.000000 
34.000000 14.000000 314.000000 
34.000000 10.000000 318.000000 
38.000000 10.000000 318.000000 
34.000000 14.000000 318.000000 
14.000000 2.000000 322.000000 
14.000000 6.000000 322.000000 
14.000000 2.000000 326.000000 
14.000000 6.000000 326.000000 
2.000000 14.000000 322.000000 
14.000000 2.000000 330.000000 
14.000000 6.000000 330.000000 
14.000000 2.000000 334.000000 
14.000000 6.000000 334.000000 
18.000000 2.000000 322.000000 
22.000000 2.000000 322.000000 
18.000000 6.000000 322.000000 
18.000000 2.000000 326.000000 
22.000000 6.000000 322.000000 
22.000000 2.000000 326.000000 
18.000000 6.000000 326.000000 
22.000000 6.000000 326.000000 
26.000000 2.000000 322.000000 
30.000000 2.000000 322.000000 
26.000000 6.000000 322.000000 
26.000000 2.000000 326.000000 
30.000000 6.000000 322.000000 
30.000000 2.000000 326.000000 
26.000000 6.000000 326.000000 
30.000000 6.000000 326.000000 
18.000000 10.000000 322.000000 
22.000000 10.000000 322.000000 
18.000000 14.000000 322.000000 
18.000000 10.000000 326.000000 
22.000000 14.000000 322.000000 
22.000000 10.000000 326.000000 
18.000000 14.000000 326.000000 
22.000000 14.000000 326.000000 
18.000000 2.000000 330.000000 
22.000000 2.000000 330.000000 
18.000000 6.000000 330.000000 
18.000000 2.000000 334.000000 
22.000000 6.000000 330.000000 
22.000000 2.000000 334.000000 
18.000000 6.000000 334.000000 
22.000000 6.000000 334.000000 
26.000000 10.000000 322.000000 
30.000000 10.000000 322.000000 
26.000000 14.000000 322.000000 
26.000000 10.000000 326.000000 
30.000000 14.000000 322.000000 
30.000000 10.000000 326.000000 
26.000000 14.000000 326.000000 
30.000000 14.000000 326.000000 
30.000000 2.000000 330.000000 
26.000000 6.000000 330.000000 
30.000000 6.000000 330.000000 
30.000000 2.000000 334.000000 
26.000000 6.000000 334.000000 
30.000000 6.000000 334.000000 
18.000000 10.000000 330.000000 
18.000000 14.000000 330.000000 
18.000000 10.000000 334.000000 
22.000000 14.000000 330.000000 
18.000000 14.000000 334.000000 
22.000000 14.000000 334.000000 
26.000000 10.000000 330.000000 
30.000000 10.000000 330.000000 
26.000000 14.000000 330.000000 
26.000000 10.000000 334.000000 
30.000000 14.000000 330.000000 
30.000000 10.000000 334.000000 
26.000000 14.000000 334.000000 
30.000000 14.000000 334.000000 
14.000000 2.000000 338.000000 
14.000000 6.000000 338.000000 
14.000000 2.000000 342.000000 
14.000000 6.000000 342.000000 
6.000000 2.000000 346.000000 
6.000000 2.000000 350.000000 
6.000000 6.000000 350.000000 
10.000000 2.000000 346.000000 
14.000000 2.000000 346.000000 
10.000000 6.000000 346.000000 
10.000000 2.000000 350.000000 
14.000000 6.000000 346.000000 
14.000000 2.000000 350.000000 
10.000000 6.000000 350.000000 
14.000000 6.000000 350.000000 
10.000000 10.000000 346.000000 
14.000000 10.000000 346.000000 
10.000000 10.000000 350.000000 
14.000000 14.000000 346.000000 
14.000000 10.000000 350.000000 
10.000000 14.000000 350.000000 
14.000000 14.000000 350.000000 
18.000000 2.000000 338.000000 
22.000000 2.000000 338.000000 
18.000000 6.000000 338.000000 
18.000000 2.000000 342.000000 
22.000000 6.000000 338.000000 
22.000000 2.000000 342.000000 
18.000000 6.000000 342.000000 
22.000000 6.000000 342.000000 
30.000000 2.000000 338.000000 
26.000000 2.000000 342.000000 
30.000000 6.000000 338.000000 
30.000000 6.000000 342.000000 
18.000000 10.000000 338.000000 
18.000000 14.000000 338.000000 
18.000000 10.000000 342.000000 
22.000000 10.000000 342.000000 
18.000000 14.000000 342.000000 
18.000000 2.000000 346.000000 
22.000000 2.000000 346.000000 
18.000000 6.000000 346.000000 
18.000000 2.000000 350.000000 
22.000000 6.000000 346.000000 
22.000000 2.000000 350.000000 
18.000000 6.000000 350.000000 
22.000000 6.000000 350.000000 
26.000000 10.000000 338.000000 
30.000000 10.000000 338.000000 
26.000000 14.000000 338.000000 
30.000000 14.000000 338.000000 
30.000000 10.000000 342.000000 
26.000000 14.000000 342.000000 
30.000000 14.000000 342.000000 
26.000000 2.000000 346.000000 
26.000000 2.000000 350.000000 
18.000000 10.000000 346.000000 
22.000000 10.000000 346.000000 
18.000000 14.000000 346.000000 
18.000000 10.000000 350.000000 
22.000000 10.000000 350.000000 
18.000000 14.000000 350.000000 
30.000000 10.000000 346.000000 
26.000000 14.000000 346.000000 
30.000000 14.000000 346.000000 
30.000000 14.000000 350.000000 
14.000000 18.000000 346.000000 
14.000000 18.000000 350.000000 
22.000000 18.000000 338.000000 
26.000000 18.000000 338.000000 
30.000000 18.000000 338.000000 
26.000000 18.000000 342.000000 
30.000000 18.000000 342.000000 
18.000000 18.000000 350.000000 
26.000000 18.000000 346.000000 
30.000000 18.000000 346.000000 
26.000000 22.000000 346.000000 
30.000000 22.000000 346.000000 
30.000000 18.000000 350.000000 
26.000000 22.000000 350.000000 
30.000000 22.000000 350.000000 
34.000000 2.000000 322.000000 
38.000000 2.000000 322.000000 
34.000000 6.000000 322.000000 
34.000000 2.000000 326.000000 
38.000000 6.000000 322.000000 
38.000000 2.000000 326.000000 
34.000000 6.000000 326.000000 
38.000000 6.000000 326.000000 
42.000000 2.000000 322.000000 
46.000000 2.000000 322.000000 
42.000000 6.000000 322.000000 
42.000000 2.000000 326.000000 
46.000000 2.000000 326.000000 
42.000000 6.000000 326.000000 
34.000000 10.000000 322.000000 
38.000000 10.000000 322.000000 
34.000000 10.000000 326.000000 
38.000000 10.000000 326.000000 
34.000000 2.000000 330.000000 
38.000000 2.000000 330.000000 
34.000000 6.000000 330.000000 
34.000000 2.000000 334.000000 
38.000000 6.000000 330.000000 
38.000000 2.000000 334.000000 
34.000000 6.000000 334.000000 
38.000000 6.000000 334.000000 
42.000000 2.000000 330.000000 
46.000000 2.000000 330.000000 
42.000000 6.000000 330.000000 
42.000000 2.000000 334.000000 
46.000000 2.000000 334.000000 
42.000000 6.000000 334.000000 
34.000000 10.000000 330.000000 
38.000000 10.000000 330.000000 
34.000000 10.000000 334.000000 
50.000000 2.000000 330.000000 
50.000000 2.000000 334.000000 
34.000000 2.000000 338.000000 
38.000000 2.000000 338.000000 
34.000000 6.000000 338.000000 
34.000000 2.000000 342.000000 
38.000000 6.000000 338.000000 
38.000000 2.000000 342.000000 
34.000000 6.000000 342.000000 
38.000000 6.000000 342.000000 
42.000000 2.000000 338.000000 
46.000000 2.000000 338.000000 
42.000000 6.000000 338.000000 
42.000000 2.000000 342.000000 
46.000000 6.000000 338.000000 
46.000000 2.000000 342.000000 
42.000000 6.000000 342.000000 
46.000000 6.000000 342.000000 
34.000000 10.000000 338.000000 
38.000000 10.000000 338.000000 
34.000000 14.000000 338.000000 
34.000000 10.000000 342.000000 
38.000000 14.000000 338.000000 
38.000000 10.000000 342.000000 
34.000000 14.000000 342.000000 
38.000000 14.000000 342.000000 
34.000000 2.000000 346.000000 
38.000000 2.000000 346.000000 
34.000000 6.000000 346.000000 
38.000000 6.000000 346.000000 
38.000000 2.000000 350.000000 
34.000000 6.000000 350.000000 
38.000000 6.000000 350.000000 
42.000000 10.000000 338.000000 
46.000000 10.000000 338.000000 
42.000000 14.000000 338.000000 
42.000000 10.000000 342.000000 
46.000000 10.000000 342.000000 
42.000000 14.000000 342.000000 
46.000000 14.000000 342.000000 
42.000000 2.000000 346.000000 
46.000000 2.000000 346.000000 
42.000000 6.000000 346.000000 
42.000000 2.000000 350.000000 
46.000000 6.000000 346.000000 
46.000000 2.000000 350.000000 
42.000000 6.000000 350.000000 
46.000000 6.000000 350.000000 
34.000000 10.000000 346.000000 
38.000000 10.000000 346.000000 
34.000000 14.000000 346.000000 
34.000000 10.000000 350.000000 
38.000000 14.000000 346.000000 
38.000000 10.000000 350.000000 
34.000000 14.000000 350.000000 
38.000000 14.000000 350.000000 
42.000000 10.000000 346.000000 
46.000000 10.000000 346.000000 
42.000000 14.000000 346.000000 
42.000000 10.000000 350.000000 
46.000000 14.000000 346.000000 
46.000000 10.000000 350.000000 
42.000000 14.000000 350.000000 
46.000000 14.000000 350.000000 
50.000000 2.000000 338.000000 
54.000000 2.000000 338.000000 
50.000000 6.000000 338.000000 
50.000000 2.000000 342.000000 
54.000000 2.000000 342.000000 
50.000000 6.000000 342.000000 
54.000000 6.000000 342.000000 
58.000000 2.000000 342.000000 
50.000000 10.000000 342.000000 
50.000000 2.000000 346.000000 
54.000000 2.000000 346.000000 
50.000000 6.000000 346.000000 
50.000000 2.000000 350.000000 
54.000000 6.000000 346.000000 
54.000000 2.000000 350.000000 
50.000000 6.000000 350.000000 
54.000000 6.000000 350.000000 
58.000000 2.000000 346.000000 
58.000000 6.000000 346.000000 
58.000000 2.000000 350.000000 
62.000000 2.000000 350.000000 
58.000000 6.000000 350.000000 
62.000000 6.000000 350.000000 
50.000000 10.000000 346.000000 
54.000000 10.000000 346.000000 
50.000000 14.000000 346.000000 
50.000000 10.000000 350.000000 
54.000000 10.000000 350.000000 
50.000000 14.000000 350.000000 
54.000000 14.000000 350.000000 
58.000000 10.000000 350.000000 
62.000000 10.000000 350.000000 
58.000000 14.000000 350.000000 
62.000000 14.000000 350.000000 
34.000000 18.000000 338.000000 
38.000000 18.000000 338.000000 
34.000000 18.000000 342.000000 
38.000000 18.000000 342.000000 
42.000000 18.000000 342.000000 
46.000000 18.000000 342.000000 
34.000000 18.000000 346.000000 
38.000000 18.000000 346.000000 
34.000000 22.000000 346.000000 
34.000000 18.000000 350.000000 
38.000000 22.000000 346.000000 
38.000000 18.000000 350.000000 
34.000000 22.000000 350.000000 
38.000000 22.000000 350.000000 
42.000000 18.000000 346.000000 
46.000000 18.000000 346.000000 
42.000000 22.000000 346.000000 
42.000000 18.000000 350.000000 
46.000000 22.000000 346.000000 
46.000000 18.000000 350.000000 
42.000000 22.000000 350.000000 
46.000000 22.000000 350.000000 
50.000000 18.000000 346.000000 
50.000000 22.000000 346.000000 
50.000000 18.000000 350.000000 
54.000000 18.000000 350.000000 
50.000000 22.000000 350.000000 
54.000000 22.000000 350.000000 
58.000000 18.000000 350.000000 
58.000000 22.000000 350.000000 
6.000000 2.000000 354.000000 
2.000000 2.000000 358.000000 
6.000000 6.000000 354.000000 
6.000000 2.000000 358.000000 
6.000000 6.000000 358.000000 
10.000000 2.000000 354.000000 
14.000000 2.000000 354.000000 
10.000000 6.000000 354.000000 
10.000000 2.000000 358.000000 
14.000000 6.000000 354.000000 
14.000000 2.000000 358.000000 
10.000000 6.000000 358.000000 
14.000000 6.000000 358.000000 
6.000000 10.000000 358.000000 
2.000000 2.000000 362.000000 
6.000000 2.000000 362.000000 
2.000000 2.000000 366.000000 
6.000000 6.000000 362.000000 
6.000000 2.000000 366.000000 
2.000000 6.000000 366.000000 
6.000000 6.000000 366.000000 
10.000000 10.000000 354.000000 
14.000000 10.000000 354.000000 
10.000000 14.000000 354.000000 
10.000000 10.000000 358.000000 
14.000000 14.000000 354.000000 
14.000000 10.000000 358.000000 
10.000000 14.000000 358.000000 
14.000000 14.000000 358.000000 
10.000000 2.000000 362.000000 
14.000000 2.000000 362.000000 
10.000000 2.000000 366.000000 
14.000000 6.000000 362.000000 
14.000000 2.000000 366.000000 
10.000000 6.000000 366.000000 
6.000000 14.000000 366.000000 
10.000000 10.000000 362.000000 
14.000000 10.000000 362.000000 
10.000000 14.000000 362.000000 
10.000000 10.000000 366.000000 
14.000000 14.000000 362.000000 
14.000000 10.000000 366.000000 
10.000000 14.000000 366.000000 
14.000000 14.000000 366.000000 
18.000000 2.000000 354.000000 
22.000000 2.000000 354.000000 
18.000000 6.000000 354.000000 
18.000000 2.000000 358.000000 
22.000000 6.000000 354.000000 
22.000000 2.000000 358.000000 
18.000000 6.000000 358.000000 
22.000000 6.000000 358.000000 
26.000000 2.000000 354.000000 
26.000000 6.000000 354.000000 
26.000000 2.000000 358.000000 
26.000000 6.000000 358.000000 
18.000000 10.000000 354.000000 
22.000000 10.000000 354.000000 
18.000000 14.000000 354.000000 
18.000000 10.000000 358.000000 
22.000000 14.000000 354.000000 
22.000000 10.000000 358.000000 
18.000000 14.000000 358.000000 
22.000000 14.000000 358.000000 
22.000000 2.000000 362.000000 
18.000000 6.000000 362.000000 
22.000000 6.000000 362.000000 
18.000000 6.000000 366.000000 
22.000000 6.000000 366.000000 
26.000000 2.000000 362.000000 
30.000000 2.000000 362.000000 
26.000000 6.000000 362.000000 
26.000000 2.000000 366.000000 
30.000000 2.000000 366.000000 
26.000000 6.000000 366.000000 
18.000000 10.000000 362.000000 
22.000000 10.000000 362.000000 
18.000000 14.000000 362.000000 
18.000000 10.000000 366.000000 
22.000000 14.000000 362.000000 
22.000000 10.000000 366.000000 
18.000000 14.000000 366.000000 
22.000000 14.000000 366.000000 
26.000000 10.000000 362.000000 
26.000000 10.000000 366.000000 
14.000000 18.000000 354.000000 
14.000000 18.000000 358.000000 
14.000000 22.000000 358.000000 
14.000000 18.000000 362.000000 
10.000000 18.000000 366.000000 
14.000000 22.000000 362.000000 
14.000000 18.000000 366.000000 
14.000000 22.000000 366.000000 
2.000000 2.000000 370.000000 
6.000000 2.000000 370.000000 
2.000000 6.000000 370.000000 
2.000000 2.000000 374.000000 
6.000000 6.000000 370.000000 
6.000000 2.000000 374.000000 
2.000000 6.000000 374.000000 
6.000000 6.000000 374.000000 
10.000000 2.000000 370.000000 
14.000000 2.000000 370.000000 
10.000000 2.000000 374.000000 
14.000000 2.000000 374.000000 
10.000000 6.000000 374.000000 
2.000000 10.000000 370.000000 
2.000000 10.000000 374.000000 
2.000000 2.000000 378.000000 
6.000000 2.000000 378.000000 
2.000000 6.000000 378.000000 
2.000000 2.000000 382.000000 
6.000000 6.000000 378.000000 
6.000000 2.000000 382.000000 
2.000000 6.000000 382.000000 
6.000000 6.000000 382.000000 
14.000000 10.000000 370.000000 
10.000000 14.000000 370.000000 
14.000000 14.000000 370.000000 
14.000000 14.000000 374.000000 
10.000000 2.000000 378.000000 
14.000000 2.000000 378.000000 
10.000000 6.000000 378.000000 
10.000000 2.000000 382.000000 
14.000000 6.000000 378.000000 
14.000000 2.000000 382.000000 
10.000000 6.000000 382.000000 
14.000000 6.000000 382.000000 
2.000000 10.000000 378.000000 
2.000000 10.000000 382.000000 
6.000000 10.000000 382.000000 
14.000000 14.000000 378.000000 
18.000000 18.000000 354.000000 
18.000000 22.000000 354.000000 
18.000000 18.000000 358.000000 
18.000000 22.000000 358.000000 
30.000000 22.000000 354.000000 
18.000000 18.000000 362.000000 
18.000000 22.000000 362.000000 
18.000000 18.000000 366.000000 
22.000000 18.000000 366.000000 
18.000000 22.000000 366.000000 
18.000000 2.000000 374.000000 
22.000000 6.000000 370.000000 
30.000000 2.000000 370.000000 
26.000000 6.000000 370.000000 
30.000000 6.000000 370.000000 
30.000000 2.000000 374.000000 
26.000000 6.000000 374.000000 
30.000000 6.000000 374.000000 
18.000000 10.000000 370.000000 
22.000000 10.000000 370.000000 
18.000000 14.000000 370.000000 
22.000000 14.000000 370.000000 
22.000000 10.000000 374.000000 
18.000000 14.000000 374.000000 
22.000000 14.000000 374.000000 
18.000000 2.000000 378.000000 
18.000000 2.000000 382.000000 
26.000000 10.000000 370.000000 
26.000000 14.000000 370.000000 
26.000000 10.000000 374.000000 
26.000000 14.000000 374.000000 
30.000000 6.000000 378.000000 
22.000000 10.000000 378.000000 
18.000000 14.000000 378.000000 
22.000000 14.000000 378.000000 
22.000000 14.000000 382.000000 
26.000000 10.000000 378.000000 
30.000000 10.000000 378.000000 
26.000000 14.000000 378.000000 
26.000000 10.000000 382.000000 
30.000000 10.000000 382.000000 
26.000000 14.000000 382.000000 
6.000000 18.000000 374.000000 
10.000000 18.000000 370.000000 
14.000000 18.000000 370.000000 
10.000000 22.000000 370.000000 
10.000000 18.000000 374.000000 
14.000000 22.000000 370.000000 
14.000000 18.000000 374.000000 
10.000000 22.000000 374.000000 
14.000000 22.000000 374.000000 
6.000000 22.000000 378.000000 
6.000000 22.000000 382.000000 
10.000000 18.000000 378.000000 
14.000000 18.000000 378.000000 
10.000000 22.000000 378.000000 
14.000000 22.000000 378.000000 
14.000000 18.000000 382.000000 
10.000000 22.000000 382.000000 
14.000000 22.000000 382.000000 
18.000000 18.000000 370.000000 
22.000000 18.000000 370.000000 
18.000000 22.000000 370.000000 
18.000000 18.000000 374.000000 
22.000000 18.000000 374.000000 
18.000000 22.000000 374.000000 
18.000000 18.000000 378.000000 
22.000000 18.000000 378.000000 
18.000000 22.000000 378.000000 
18.000000 18.000000 382.000000 
22.000000 22.000000 378.000000 
22.000000 18.000000 382.000000 
18.000000 22.000000 382.000000 
22.000000 22.000000 382.000000 
26.000000 18.000000 382.000000 
46.000000 2.000000 354.000000 
46.000000 6.000000 354.000000 
34.000000 14.000000 354.000000 
38.000000 10.000000 358.000000 
34.000000 14.000000 358.000000 
38.000000 14.000000 358.000000 
46.000000 10.000000 354.000000 
46.000000 14.000000 354.000000 
50.000000 2.000000 354.000000 
54.000000 2.000000 354.000000 
50.000000 6.000000 354.000000 
50.000000 2.000000 358.000000 
54.000000 6.000000 354.000000 
54.000000 2.000000 358.000000 
50.000000 6.000000 358.000000 
54.000000 6.000000 358.000000 
58.000000 2.000000 354.000000 
62.000000 2.000000 354.000000 
58.000000 6.000000 354.000000 
58.000000 2.000000 358.000000 
62.000000 6.000000 354.000000 
62.000000 2.000000 358.000000 
58.000000 6.000000 358.000000 
62.000000 6.000000 358.000000 
50.000000 10.000000 354.000000 
54.000000 10.000000 354.000000 
50.000000 14.000000 354.000000 
50.000000 10.000000 358.000000 
54.000000 14.000000 354.000000 
54.000000 10.000000 358.000000 
50.000000 14.000000 358.000000 
54.000000 14.000000 358.000000 
54.000000 2.000000 362.000000 
54.000000 6.000000 362.000000 
54.000000 2.000000 366.000000 
54.000000 6.000000 366.000000 
58.000000 10.000000 354.000000 
62.000000 10.000000 354.000000 
58.000000 14.000000 354.000000 
58.000000 10.000000 358.000000 
62.000000 14.000000 354.000000 
62.000000 10.000000 358.000000 
58.000000 14.000000 358.000000 
62.000000 14.000000 358.000000 
58.000000 2.000000 362.000000 
62.000000 2.000000 362.000000 
58.000000 6.000000 362.000000 
58.000000 2.000000 366.000000 
62.000000 6.000000 362.000000 
62.000000 2.000000 366.000000 
58.000000 6.000000 366.000000 
62.000000 6.000000 366.000000 
54.000000 10.000000 362.000000 
54.000000 14.000000 362.000000 
54.000000 10.000000 366.000000 
54.000000 14.000000 366.000000 
58.000000 10.000000 362.000000 
62.000000 10.000000 362.000000 
58.000000 14.000000 362.000000 
58.000000 10.000000 366.000000 
62.000000 14.000000 362.000000 
62.000000 10.000000 366.000000 
58.000000 14.000000 366.000000 
62.000000 14.000000 366.000000 
34.000000 18.000000 354.000000 
34.000000 22.000000 354.000000 
34.000000 18.000000 358.000000 
38.000000 18.000000 358.000000 
34.000000 22.000000 358.000000 
38.000000 22.000000 358.000000 
46.000000 18.000000 354.000000 
46.000000 22.000000 354.000000 
38.000000 18.000000 362.000000 
34.000000 22.000000 362.000000 
38.000000 22.000000 362.000000 
38.000000 22.000000 366.000000 
34.000000 2.000000 378.000000 
50.000000 18.000000 354.000000 
54.000000 18.000000 354.000000 
50.000000 22.000000 354.000000 
50.000000 18.000000 358.000000 
54.000000 22.000000 354.000000 
54.000000 18.000000 358.000000 
50.000000 22.000000 358.000000 
54.000000 22.000000 358.000000 
58.000000 18.000000 354.000000 
62.000000 18.000000 354.000000 
58.000000 22.000000 354.000000 
58.000000 18.000000 358.000000 
62.000000 22.000000 354.000000 
62.000000 18.000000 358.000000 
58.000000 22.000000 358.000000 
62.000000 22.000000 358.000000 
54.000000 18.000000 362.000000 
54.000000 22.000000 362.000000 
54.000000 18.000000 366.000000 
54.000000 22.000000 366.000000 
58.000000 18.000000 362.000000 
62.000000 18.000000 362.000000 
58.000000 22.000000 362.000000 
58.000000 18.000000 366.000000 
62.000000 22.000000 362.000000 
62.000000 18.000000 366.000000 
58.000000 22.000000 366.000000 
62.000000 22.000000 366.000000 
58.000000 2.000000 370.000000 
62.000000 2.000000 370.000000 
58.000000 6.000000 370.000000 
58.000000 2.000000 374.000000 
62.000000 6.000000 370.000000 
62.000000 2.000000 374.000000 
58.000000 6.000000 374.000000 
62.000000 6.000000 374.000000 
58.000000 10.000000 370.000000 
62.000000 10.000000 370.000000 
58.000000 14.000000 370.000000 
58.000000 10.000000 374.000000 
62.000000 14.000000 370.000000 
62.000000 10.000000 374.000000 
58.000000 14.000000 374.000000 
62.000000 14.000000 374.000000 
62.000000 2.000000 378.000000 
62.000000 6.000000 378.000000 
62.000000 2.000000 382.000000 
62.000000 6.000000 382.000000 
62.000000 10.000000 378.000000 
62.000000 14.000000 378.000000 
62.000000 10.000000 382.000000 
62.000000 14.000000 382.000000 
42.000000 22.000000 374.000000 
58.000000 18.000000 370.000000 
62.000000 18.000000 370.000000 
58.000000 22.000000 370.000000 
58.000000 18.000000 374.000000 
62.000000 22.000000 370.000000 
62.000000 18.000000 374.000000 
58.000000 22.000000 374.000000 
62.000000 22.000000 374.000000 
62.000000 18.000000 378.000000 
62.000000 22.000000 378.000000 
62.000000 18.000000 382.000000 
62.000000 22.000000 382.000000 
66.000000 2.000000 350.000000 
66.000000 2.000000 354.000000 
70.000000 2.000000 354.000000 
66.000000 6.000000 354.000000 
66.000000 2.000000 358.000000 
70.000000 6.000000 354.000000 
70.000000 2.000000 358.000000 
66.000000 6.000000 358.000000 
70.000000 6.000000 358.000000 
74.000000 2.000000 358.000000 
78.000000 2.000000 358.000000 
74.000000 6.000000 358.000000 
66.000000 10.000000 354.000000 
70.000000 10.000000 354.000000 
66.000000 14.000000 354.000000 
66.000000 10.000000 358.000000 
70.000000 10.000000 358.000000 
66.000000 14.000000 358.000000 
70.000000 14.000000 358.000000 
66.000000 2.000000 362.000000 
70.000000 2.000000 362.000000 
66.000000 6.000000 362.000000 
66.000000 2.000000 366.000000 
70.000000 6.000000 362.000000 
70.000000 2.000000 366.000000 
66.000000 6.000000 366.000000 
70.000000 6.000000 366.000000 
74.000000 10.000000 358.000000 
74.000000 2.000000 362.000000 
78.000000 2.000000 362.000000 
74.000000 6.000000 362.000000 
74.000000 2.000000 366.000000 
78.000000 6.000000 362.000000 
78.000000 2.000000 366.000000 
74.000000 6.000000 366.000000 
78.000000 6.000000 366.000000 
66.000000 10.000000 362.000000 
70.000000 10.000000 362.000000 
66.000000 14.000000 362.000000 
66.000000 10.000000 366.000000 
70.000000 14.000000 362.000000 
70.000000 10.000000 366.000000 
66.000000 14.000000 366.000000 
70.000000 14.000000 366.000000 
74.000000 10.000000 362.000000 
78.000000 10.000000 362.000000 
74.000000 14.000000 362.000000 
74.000000 10.000000 366.000000 
78.000000 14.000000 362.000000 
78.000000 10.000000 366.000000 
74.000000 14.000000 366.000000 
78.000000 14.000000 366.000000 
82.000000 2.000000 362.000000 
82.000000 6.000000 362.000000 
82.000000 2.000000 366.000000 
86.000000 2.000000 366.000000 
82.000000 6.000000 366.000000 
86.000000 6.000000 366.000000 
90.000000 2.000000 366.000000 
82.000000 10.000000 366.000000 
86.000000 10.000000 366.000000 
82.000000 14.000000 366.000000 
66.000000 18.000000 354.000000 
66.000000 18.000000 358.000000 
70.000000 18.000000 358.000000 
66.000000 22.000000 358.000000 
66.000000 18.000000 362.000000 
70.000000 18.000000 362.000000 
66.000000 22.000000 362.000000 
66.000000 18.000000 366.000000 
70.000000 22.000000 362.000000 
70.000000 18.000000 366.000000 
66.000000 22.000000 366.000000 
70.000000 22.000000 366.000000 
74.000000 18.000000 362.000000 
74.000000 22.000000 362.000000 
74.000000 18.000000 366.000000 
78.000000 18.000000 366.000000 
74.000000 22.000000 366.000000 
78.000000 22.000000 366.000000 
66.000000 2.000000 370.000000 
70.000000 2.000000 370.000000 
66.000000 6.000000 370.000000 
66.000000 2.000000 374.000000 
70.000000 6.000000 370.000000 
70.000000 2.000000 374.000000 
66.000000 6.000000 374.000000 
70.000000 6.000000 374.000000 
74.000000 2.000000 370.000000 
78.000000 2.000000 370.000000 
74.000000 6.000000 370.000000 
74.000000 2.000000 374.000000 
78.000000 6.000000 370.000000 
78.000000 2.000000 374.000000 
74.000000 6.000000 374.000000 
78.000000 6.000000 374.000000 
66.000000 10.000000 370.000000 
70.000000 10.000000 370.000000 
66.000000 14.000000 370.000000 
66.000000 10.000000 374.000000 
70.000000 14.000000 370.000000 
70.000000 10.000000 374.000000 
66.000000 14.000000 374.000000 
70.000000 14.000000 374.000000 
66.000000 2.000000 378.000000 
70.000000 2.000000 378.000000 
66.000000 6.000000 378.000000 
66.000000 2.000000 382.000000 
70.000000 6.000000 378.000000 
70.000000 2.000000 382.000000 
66.000000 6.000000 382.000000 
70.000000 6.000000 382.000000 
74.000000 10.000000 370.000000 
78.000000 10.000000 370.000000 
74.000000 14.000000 370.000000 
74.000000 10.000000 374.000000 
78.000000 14.000000 370.000000 
78.000000 10.000000 374.000000 
74.000000 14.000000 374.000000 
78.000000 14.000000 374.000000 
74.000000 2.000000 378.000000 
78.000000 2.000000 378.000000 
74.000000 6.000000 378.000000 
74.000000 2.000000 382.000000 
78.000000 6.000000 378.000000 
78.000000 2.000000 382.000000 
74.000000 6.000000 382.000000 
78.000000 6.000000 382.000000 
66.000000 10.000000 378.000000 
70.000000 10.000000 378.000000 
66.000000 14.000000 378.000000 
66.000000 10.000000 382.000000 
70.000000 14.000000 378.000000 
70.000000 10.000000 382.000000 
66.000000 14.000000 382.000000 
70.000000 14.000000 382.000000 
74.000000 10.000000 378.000000 
78.000000 10.000000 378.000000 
74.000000 14.000000 378.000000 
74.000000 10.000000 382.000000 
78.000000 14.000000 378.000000 
78.000000 10.000000 382.000000 
74.000000 14.000000 382.000000 
78.000000 14.000000 382.000000 
82.000000 2.000000 370.000000 
86.000000 2.000000 370.000000 
82.000000 6.000000 370.000000 
82.000000 2.000000 374.000000 
86.000000 6.000000 370.000000 
86.000000 2.000000 374.000000 
82.000000 6.000000 374.000000 
86.000000 6.000000 374.000000 
90.000000 2.000000 370.000000 
94.000000 2.000000 370.000000 
90.000000 6.000000 370.000000 
90.000000 2.000000 374.000000 
94.000000 2.000000 374.000000 
90.000000 6.000000 374.000000 
94.000000 6.000000 374.000000 
82.000000 10.000000 370.000000 
86.000000 10.000000 370.000000 
82.000000 14.000000 370.000000 
82.000000 10.000000 374.000000 
86.000000 14.000000 370.000000 
86.000000 10.000000 374.000000 
82.000000 14.000000 374.000000 
86.000000 14.000000 374.000000 
82.000000 2.000000 378.000000 
86.000000 2.000000 378.000000 
82.000000 6.000000 378.000000 
82.000000 2.000000 382.000000 
86.000000 6.000000 378.000000 
86.000000 2.000000 382.000000 
82.000000 6.000000 382.000000 
86.000000 6.000000 382.000000 
90.000000 10.000000 370.000000 
90.000000 10.000000 374.000000 
90.000000 14.000000 374.000000 
90.000000 2.000000 378.000000 
94.000000 2.000000 378.000000 
90.000000 6.000000 378.000000 
90.000000 2.000000 382.000000 
94.000000 6.000000 378.000000 
94.000000 2.000000 382.000000 
90.000000 6.000000 382.000000 
94.000000 6.000000 382.000000 
82.000000 10.000000 378.000000 
86.000000 10.000000 378.000000 
82.000000 14.000000 378.000000 
82.000000 10.000000 382.000000 
86.000000 14.000000 378.000000 
86.000000 10.000000 382.000000 
82.000000 14.000000 382.000000 
86.000000 14.000000 382.000000 
90.000000 10.000000 378.000000 
94.000000 10.000000 378.000000 
90.000000 14.000000 378.000000 
90.000000 10.000000 382.000000 
94.000000 14.000000 378.000000 
94.000000 10.000000 382.000000 
90.000000 14.000000 382.000000 
94.000000 14.000000 382.000000 
66.000000 18.000000 370.000000 
70.000000 18.000000 370.000000 
66.000000 22.000000 370.000000 
66.000000 18.000000 374.000000 
70.000000 22.000000 370.000000 
70.000000 18.000000 374.000000 
66.000000 22.000000 374.000000 
70.000000 22.000000 374.000000 
74.000000 18.000000 370.000000 
78.000000 18.000000 370.000000 
74.000000 22.000000 370.000000 
74.000000 18.000000 374.000000 
78.000000 22.000000 370.000000 
78.000000 18.000000 374.000000 
74.000000 22.000000 374.000000 
78.000000 22.000000 374.000000 
66.000000 18.000000 378.000000 
70.000000 18.000000 378.000000 
66.000000 22.000000 378.000000 
66.000000 18.000000 382.000000 
70.000000 22.000000 378.000000 
70.000000 18.000000 382.000000 
66.000000 22.000000 382.000000 
70.000000 22.000000 382.000000 
74.000000 18.000000 378.000000 
78.000000 18.000000 378.000000 
74.000000 22.000000 378.000000 
74.000000 18.000000 382.000000 
78.000000 22.000000 378.000000 
78.000000 18.000000 382.000000 
74.000000 22.000000 382.000000 
78.000000 22.000000 382.000000 
82.000000 18.000000 370.000000 
82.000000 22.000000 370.000000 
82.000000 18.000000 374.000000 
86.000000 18.000000 374.000000 
82.000000 22.000000 374.000000 
86.000000 22.000000 374.000000 
82.000000 18.000000 378.000000 
86.000000 18.000000 378.000000 
82.000000 22.000000 378.000000 
82.000000 18.000000 382.000000 
86.000000 22.000000 378.000000 
86.000000 18.000000 382.000000 
82.000000 22.000000 382.000000 
86.000000 22.000000 382.000000 
90.000000 18.000000 378.000000 
90.000000 22.000000 378.000000 
90.000000 18.000000 382.000000 
90.000000 22.000000 382.000000 
98.000000 2.000000 378.000000 
98.000000 6.000000 378.000000 
98.000000 2.000000 382.000000 
102.000000 2.000000 382.000000 
98.000000 6.000000 382.000000 
98.000000 10.000000 382.000000 
222.000000 18.000000 258.000000 
222.000000 22.000000 258.000000 
222.000000 26.000000 258.000000 
226.000000 18.000000 258.000000 
230.000000 18.000000 258.000000 
226.000000 22.000000 258.000000 
226.000000 26.000000 258.000000 
234.000000 46.000000 258.000000 
238.000000 46.000000 258.000000 
254.000000 38.000000 258.000000 
242.000000 42.000000 258.000000 
246.000000 42.000000 258.000000 
242.000000 46.000000 258.000000 
246.000000 46.000000 258.000000 
250.000000 42.000000 258.000000 
254.000000 42.000000 258.000000 
250.000000 46.000000 258.000000 
254.000000 46.000000 258.000000 
254.000000 46.000000 262.000000 
230.000000 54.000000 258.000000 
234.000000 50.000000 258.000000 
238.000000 50.000000 258.000000 
234.000000 54.000000 258.000000 
238.000000 54.000000 258.000000 
226.000000 58.000000 258.000000 
230.000000 58.000000 258.000000 
226.000000 62.000000 258.000000 
230.000000 62.000000 258.000000 
234.000000 58.000000 258.000000 
238.000000 58.000000 258.000000 
234.000000 62.000000 258.000000 
238.000000 62.000000 258.000000 
238.000000 58.000000 262.000000 
234.000000 62.000000 262.000000 
238.000000 62.000000 262.000000 
242.000000 50.000000 258.000000 
246.000000 50.000000 258.000000 
242.000000 54.000000 258.000000 
246.000000 54.000000 258.000000 
246.000000 50.000000 262.000000 
242.000000 54.000000 262.000000 
246.000000 54.000000 262.000000 
250.000000 50.000000 258.000000 
254.000000 50.000000 258.000000 
250.000000 54.000000 258.000000 
250.000000 50.000000 262.000000 
254.000000 54.000000 258.000000 
254.000000 50.000000 262.000000 
250.000000 54.000000 262.000000 
254.000000 54.000000 262.000000 
242.000000 58.000000 258.000000 
246.000000 58.000000 258.000000 
242.000000 62.000000 258.000000 
242.000000 58.000000 262.000000 
246.000000 62.000000 258.000000 
246.000000 58.000000 262.000000 
242.000000 62.000000 262.000000 
246.000000 62.000000 262.000000 
250.000000 58.000000 258.000000 
254.000000 58.000000 258.000000 
250.000000 62.000000 258.000000 
250.000000 58.000000 262.000000 
254.000000 62.000000 258.000000 
254.000000 58.000000 262.000000 
250.000000 62.000000 262.000000 
254.000000 62.000000 262.000000 
254.000000 54.000000 266.000000 
250.000000 58.000000 266.000000 
254.000000 58.000000 266.000000 
250.000000 62.000000 266.000000 
254.000000 62.000000 266.000000 
226.000000 66.000000 258.000000 
230.000000 66.000000 258.000000 
226.000000 70.000000 258.000000 
230.000000 70.000000 258.000000 
234.000000 66.000000 258.000000 
238.000000 66.000000 258.000000 
234.000000 70.000000 258.000000 
234.000000 66.000000 262.000000 
238.000000 70.000000 258.000000 
238.000000 66.000000 262.000000 
234.000000 70.000000 262.000000 
238.000000 70.000000 262.000000 
230.000000 74.000000 258.000000 
230.000000 78.000000 258.000000 
234.000000 74.000000 258.000000 
238.000000 74.000000 258.000000 
234.000000 78.000000 258.000000 
234.000000 74.000000 262.000000 
238.000000 78.000000 258.000000 
238.000000 74.000000 262.000000 
234.000000 78.000000 262.000000 
238.000000 78.000000 262.000000 
242.000000 66.000000 258.000000 
246.000000 66.000000 258.000000 
242.000000 70.000000 258.000000 
242.000000 66.000000 262.000000 
246.000000 70.000000 258.000000 
246.000000 66.000000 262.000000 
242.000000 70.000000 262.000000 
246.000000 70.000000 262.000000 
250.000000 66.000000 258.000000 
254.000000 66.000000 258.000000 
250.000000 70.000000 258.000000 
250.000000 66.000000 262.000000 
254.000000 70.000000 258.000000 
254.000000 66.000000 262.000000 
250.000000 70.000000 262.000000 
254.000000 70.000000 262.000000 
242.000000 74.000000 258.000000 
246.000000 74.000000 258.000000 
242.000000 78.000000 258.000000 
242.000000 74.000000 262.000000 
246.000000 78.000000 258.000000 
246.000000 74.000000 262.000000 
242.000000 78.000000 262.000000 
246.000000 78.000000 262.000000 
246.000000 66.000000 266.000000 
246.000000 70.000000 266.000000 
250.000000 74.000000 258.000000 
254.000000 74.000000 258.000000 
250.000000 78.000000 258.000000 
250.000000 74.000000 262.000000 
254.000000 78.000000 258.000000 
254.000000 74.000000 262.000000 
250.000000 78.000000 262.000000 
254.000000 78.000000 262.000000 
250.000000 66.000000 266.000000 
254.000000 66.000000 266.000000 
250.000000 70.000000 266.000000 
254.000000 70.000000 266.000000 
254.000000 70.000000 270.000000 
242.000000 74.000000 266.000000 
246.000000 74.000000 266.000000 
242.000000 78.000000 266.000000 
246.000000 78.000000 266.000000 
250.000000 74.000000 266.000000 
254.000000 74.000000 266.000000 
250.000000 78.000000 266.000000 
254.000000 78.000000 266.000000 
254.000000 74.000000 270.000000 
254.000000 78.000000 270.000000 
234.000000 82.000000 258.000000 
238.000000 82.000000 258.000000 
234.000000 86.000000 258.000000 
238.000000 86.000000 258.000000 
238.000000 82.000000 262.000000 
238.000000 86.000000 262.000000 
238.000000 90.000000 258.000000 
242.000000 82.000000 258.000000 
246.000000 82.000000 258.000000 
242.000000 86.000000 258.000000 
242.000000 82.000000 262.000000 
246.000000 86.000000 258.000000 
246.000000 82.000000 262.000000 
242.000000 86.000000 262.000000 
246.000000 86.000000 262.000000 
250.000000 82.000000 258.000000 
254.000000 82.000000 258.000000 
250.000000 86.000000 258.000000 
250.000000 82.000000 262.000000 
254.000000 86.000000 258.000000 
254.000000 82.000000 262.000000 
250.000000 86.000000 262.000000 
254.000000 86.000000 262.000000 
242.000000 90.000000 258.000000 
246.000000 90.000000 258.000000 
242.000000 94.000000 258.000000 
242.000000 90.000000 262.000000 
246.000000 94.000000 258.000000 
246.000000 90.000000 262.000000 
246.000000 94.000000 262.000000 
242.000000 82.000000 266.000000 
246.000000 82.000000 266.000000 
242.000000 86.000000 266.000000 
246.000000 86.000000 266.000000 
250.000000 90.000000 258.000000 
250.000000 94.000000 258.000000 
250.000000 90.000000 262.000000 
254.000000 90.000000 262.000000 
250.000000 94.000000 262.000000 
254.000000 94.000000 262.000000 
250.000000 82.000000 266.000000 
254.000000 82.000000 266.000000 
250.000000 86.000000 266.000000 
250.000000 82.000000 270.000000 
254.000000 86.000000 266.000000 
254.000000 82.000000 270.000000 
250.000000 86.000000 270.000000 
254.000000 86.000000 270.000000 
246.000000 90.000000 266.000000 
246.000000 94.000000 266.000000 
246.000000 90.000000 270.000000 
250.000000 90.000000 266.000000 
254.000000 90.000000 266.000000 
250.000000 94.000000 266.000000 
250.000000 90.000000 270.000000 
254.000000 94.000000 266.000000 
254.000000 90.000000 270.000000 
250.000000 94.000000 270.000000 
254.000000 94.000000 270.000000 
254.000000 90.000000 274.000000 
254.000000 94.000000 274.000000 
242.000000 98.000000 258.000000 
242.000000 102.000000 258.000000 
246.000000 98.000000 262.000000 
250.000000 98.000000 262.000000 
254.000000 98.000000 262.000000 
250.000000 98.000000 266.000000 
254.000000 98.000000 266.000000 
250.000000 102.000000 266.000000 
250.000000 98.000000 270.000000 
254.000000 102.000000 266.000000 
254.000000 98.000000 270.000000 
254.000000 102.000000 270.000000 
254.000000 106.000000 266.000000 
254.000000 110.000000 266.000000 
254.000000 106.000000 270.000000 
254.000000 98.000000 274.000000 
2.000000 2.000000 386.000000 
6.000000 2.000000 386.000000 
2.000000 6.000000 386.000000 
2.000000 2.000000 390.000000 
6.000000 6.000000 386.000000 
6.000000 2.000000 390.000000 
2.000000 6.000000 390.000000 
6.000000 6.000000 390.000000 
10.000000 2.000000 386.000000 
14.000000 2.000000 386.000000 
10.000000 6.000000 386.000000 
10.000000 2.000000 390.000000 
14.000000 6.000000 386.000000 
14.000000 2.000000 390.000000 
10.000000 6.000000 390.000000 
14.000000 6.000000 390.000000 
2.000000 10.000000 386.000000 
6.000000 10.000000 386.000000 
2.000000 14.000000 386.000000 
2.000000 10.000000 390.000000 
6.000000 10.000000 390.000000 
2.000000 14.000000 390.000000 
2.000000 2.000000 394.000000 
6.000000 2.000000 394.000000 
2.000000 6.000000 394.000000 
2.000000 2.000000 398.000000 
6.000000 6.000000 394.000000 
6.000000 2.000000 398.000000 
2.000000 6.000000 398.000000 
6.000000 6.000000 398.000000 
10.000000 10.000000 390.000000 
10.000000 2.000000 394.000000 
14.000000 2.000000 394.000000 
10.000000 6.000000 394.000000 
10.000000 2.000000 398.000000 
14.000000 6.000000 394.000000 
14.000000 2.000000 398.000000 
10.000000 6.000000 398.000000 
14.000000 6.000000 398.000000 
2.000000 10.000000 394.000000 
6.000000 10.000000 394.000000 
2.000000 14.000000 394.000000 
2.000000 10.000000 398.000000 
6.000000 10.000000 398.000000 
2.000000 14.000000 398.000000 
6.000000 14.000000 398.000000 
10.000000 10.000000 394.000000 
14.000000 10.000000 394.000000 
10.000000 10.000000 398.000000 
14.000000 10.000000 398.000000 
18.000000 2.000000 386.000000 
22.000000 2.000000 386.000000 
18.000000 2.000000 390.000000 
22.000000 2.000000 390.000000 
18.000000 6.000000 390.000000 
22.000000 14.000000 386.000000 
18.000000 2.000000 394.000000 
22.000000 2.000000 394.000000 
18.000000 6.000000 394.000000 
18.000000 2.000000 398.000000 
22.000000 2.000000 398.000000 
18.000000 6.000000 398.000000 
22.000000 6.000000 398.000000 
30.000000 10.000000 386.000000 
26.000000 14.000000 386.000000 
30.000000 14.000000 386.000000 
26.000000 14.000000 390.000000 
30.000000 14.000000 390.000000 
26.000000 2.000000 394.000000 
26.000000 2.000000 398.000000 
30.000000 2.000000 398.000000 
30.000000 14.000000 394.000000 
14.000000 18.000000 386.000000 
10.000000 22.000000 386.000000 
14.000000 22.000000 386.000000 
14.000000 22.000000 390.000000 
10.000000 26.000000 394.000000 
14.000000 26.000000 394.000000 
14.000000 26.000000 398.000000 
2.000000 2.000000 402.000000 
6.000000 2.000000 402.000000 
2.000000 6.000000 402.000000 
2.000000 2.000000 406.000000 
6.000000 6.000000 402.000000 
6.000000 2.000000 406.000000 
2.000000 6.000000 406.000000 
6.000000 6.000000 406.000000 
10.000000 2.000000 402.000000 
14.000000 2.000000 402.000000 
10.000000 6.000000 402.000000 
10.000000 2.000000 406.000000 
14.000000 6.000000 402.000000 
14.000000 2.000000 406.000000 
10.000000 6.000000 406.000000 
14.000000 6.000000 406.000000 
2.000000 10.000000 402.000000 
6.000000 10.000000 402.000000 
2.000000 14.000000 402.000000 
2.000000 10.000000 406.000000 
6.000000 14.000000 402.000000 
6.000000 10.000000 406.000000 
2.000000 14.000000 406.000000 
6.000000 14.000000 406.000000 
2.000000 2.000000 410.000000 
6.000000 2.000000 410.000000 
2.000000 6.000000 410.000000 
2.000000 2.000000 414.000000 
6.000000 6.000000 410.000000 
6.000000 2.000000 414.000000 
2.000000 6.000000 414.000000 
6.000000 6.000000 414.000000 
10.000000 10.000000 402.000000 
14.000000 10.000000 402.000000 
10.000000 10.000000 406.000000 
14.000000 10.000000 406.000000 
10.000000 14.000000 406.000000 
10.000000 2.000000 410.000000 
14.000000 2.000000 410.000000 
10.000000 6.000000 410.000000 
10.000000 2.000000 414.000000 
14.000000 6.000000 410.000000 
14.000000 2.000000 414.000000 
10.000000 6.000000 414.000000 
14.000000 6.000000 414.000000 
2.000000 10.000000 410.000000 
6.000000 10.000000 410.000000 
2.000000 14.000000 410.000000 
2.000000 10.000000 414.000000 
6.000000 14.000000 410.000000 
6.000000 10.000000 414.000000 
2.000000 14.000000 414.000000 
6.000000 14.000000 414.000000 
10.000000 10.000000 410.000000 
14.000000 10.000000 410.000000 
10.000000 14.000000 410.000000 
10.000000 10.000000 414.000000 
14.000000 14.000000 410.000000 
14.000000 10.000000 414.000000 
10.000000 14.000000 414.000000 
14.000000 14.000000 414.000000 
18.000000 18.000000 386.000000 
22.000000 18.000000 386.000000 
18.000000 22.000000 386.000000 
22.000000 22.000000 386.000000 
22.000000 18.000000 390.000000 
18.000000 22.000000 390.000000 
22.000000 22.000000 390.000000 
26.000000 18.000000 386.000000 
26.000000 18.000000 390.000000 
26.000000 22.000000 390.000000 
22.000000 18.000000 394.000000 
18.000000 22.000000 394.000000 
22.000000 22.000000 394.000000 
22.000000 22.000000 398.000000 
26.000000 18.000000 394.000000 
30.000000 18.000000 394.000000 
26.000000 22.000000 394.000000 
26.000000 18.000000 398.000000 
30.000000 18.000000 398.000000 
26.000000 22.000000 398.000000 
18.000000 26.000000 394.000000 
22.000000 26.000000 394.000000 
18.000000 26.000000 398.000000 
22.000000 26.000000 398.000000 
26.000000 26.000000 394.000000 
26.000000 26.000000 398.000000 
18.000000 2.000000 402.000000 
22.000000 2.000000 402.000000 
18.000000 6.000000 402.000000 
18.000000 2.000000 406.000000 
22.000000 6.000000 402.000000 
22.000000 2.000000 406.000000 
18.000000 6.000000 406.000000 
22.000000 6.000000 406.000000 
26.000000 2.000000 402.000000 
30.000000 2.000000 402.000000 
26.000000 2.000000 406.000000 
30.000000 2.000000 406.000000 
18.000000 10.000000 406.000000 
18.000000 2.000000 410.000000 
22.000000 2.000000 410.000000 
18.000000 6.000000 410.000000 
18.000000 2.000000 414.000000 
22.000000 6.000000 410.000000 
22.000000 2.000000 414.000000 
18.000000 6.000000 414.000000 
22.000000 6.000000 414.000000 
26.000000 2.000000 410.000000 
30.000000 2.000000 410.000000 
26.000000 6.000000 410.000000 
26.000000 2.000000 414.000000 
30.000000 2.000000 414.000000 
26.000000 6.000000 414.000000 
30.000000 6.000000 414.000000 
18.000000 10.000000 410.000000 
18.000000 10.000000 414.000000 
22.000000 10.000000 414.000000 
2.000000 18.000000 402.000000 
2.000000 18.000000 406.000000 
2.000000 18.000000 410.000000 
6.000000 18.000000 410.000000 
2.000000 18.000000 414.000000 
6.000000 18.000000 414.000000 
2.000000 22.000000 414.000000 
10.000000 30.000000 402.000000 
14.000000 30.000000 402.000000 
10.000000 30.000000 406.000000 
14.000000 30.000000 406.000000 
10.000000 30.000000 410.000000 
14.000000 30.000000 410.000000 
10.000000 30.000000 414.000000 
14.000000 30.000000 414.000000 
22.000000 22.000000 402.000000 
26.000000 18.000000 402.000000 
30.000000 18.000000 402.000000 
26.000000 22.000000 402.000000 
30.000000 22.000000 402.000000 
26.000000 22.000000 406.000000 
30.000000 22.000000 406.000000 
18.000000 26.000000 402.000000 
22.000000 26.000000 402.000000 
18.000000 30.000000 402.000000 
18.000000 26.000000 406.000000 
22.000000 30.000000 402.000000 
22.000000 26.000000 406.000000 
18.000000 30.000000 406.000000 
22.000000 30.000000 406.000000 
26.000000 26.000000 402.000000 
26.000000 30.000000 402.000000 
26.000000 26.000000 406.000000 
30.000000 26.000000 406.000000 
26.000000 30.000000 406.000000 
26.000000 22.000000 410.000000 
30.000000 22.000000 410.000000 
26.000000 22.000000 414.000000 
30.000000 22.000000 414.000000 
18.000000 26.000000 410.000000 
22.000000 26.000000 410.000000 
18.000000 30.000000 410.000000 
18.000000 26.000000 414.000000 
22.000000 30.000000 410.000000 
22.000000 26.000000 414.000000 
18.000000 30.000000 414.000000 
22.000000 30.000000 414.000000 
26.000000 26.000000 410.000000 
30.000000 26.000000 410.000000 
26.000000 30.000000 410.000000 
26.000000 26.000000 414.000000 
30.000000 26.000000 414.000000 
26.000000 30.000000 414.000000 
30.000000 30.000000 414.000000 
34.000000 10.000000 390.000000 
34.000000 14.000000 398.000000 
34.000000 14.000000 402.000000 
34.000000 2.000000 410.000000 
34.000000 2.000000 414.000000 
38.000000 14.000000 410.000000 
34.000000 18.000000 406.000000 
34.000000 18.000000 410.000000 
34.000000 18.000000 414.000000 
34.000000 22.000000 414.000000 
6.000000 34.000000 414.000000 
10.000000 34.000000 414.000000 
14.000000 34.000000 414.000000 
18.000000 34.000000 414.000000 
22.000000 34.000000 414.000000 
26.000000 34.000000 414.000000 
2.000000 2.000000 418.000000 
6.000000 2.000000 418.000000 
2.000000 6.000000 418.000000 
2.000000 2.000000 422.000000 
6.000000 6.000000 418.000000 
6.000000 2.000000 422.000000 
2.000000 6.000000 422.000000 
6.000000 6.000000 422.000000 
10.000000 2.000000 418.000000 
14.000000 2.000000 418.000000 
10.000000 6.000000 418.000000 
10.000000 2.000000 422.000000 
14.000000 6.000000 418.000000 
14.000000 2.000000 422.000000 
10.000000 6.000000 422.000000 
14.000000 6.000000 422.000000 
2.000000 10.000000 418.000000 
6.000000 10.000000 418.000000 
2.000000 14.000000 418.000000 
2.000000 10.000000 422.000000 
6.000000 14.000000 418.000000 
6.000000 10.000000 422.000000 
2.000000 14.000000 422.000000 
6.000000 14.000000 422.000000 
2.000000 2.000000 426.000000 
6.000000 2.000000 426.000000 
2.000000 6.000000 426.000000 
2.000000 2.000000 430.000000 
6.000000 6.000000 426.000000 
6.000000 2.000000 430.000000 
2.000000 6.000000 430.000000 
6.000000 6.000000 430.000000 
10.000000 10.000000 418.000000 
14.000000 10.000000 418.000000 
10.000000 14.000000 418.000000 
10.000000 10.000000 422.000000 
14.000000 14.000000 418.000000 
14.000000 10.000000 422.000000 
10.000000 14.000000 422.000000 
14.000000 14.000000 422.000000 
10.000000 2.000000 426.000000 
14.000000 2.000000 426.000000 
10.000000 6.000000 426.000000 
10.000000 2.000000 430.000000 
14.000000 6.000000 426.000000 
14.000000 2.000000 430.000000 
10.000000 6.000000 430.000000 
14.000000 6.000000 430.000000 
2.000000 10.000000 426.000000 
6.000000 10.000000 426.000000 
2.000000 14.000000 426.000000 
2.000000 10.000000 430.000000 
6.000000 14.000000 426.000000 
6.000000 10.000000 430.000000 
2.000000 14.000000 430.000000 
6.000000 14.000000 430.000000 
10.000000 10.000000 426.000000 
14.000000 10.000000 426.000000 
10.000000 14.000000 426.000000 
10.000000 10.000000 430.000000 
14.000000 14.000000 426.000000 
14.000000 10.000000 430.000000 
10.000000 14.000000 430.000000 
14.000000 14.000000 430.000000 
18.000000 2.000000 418.000000 
22.000000 2.000000 418.000000 
18.000000 6.000000 418.000000 
18.000000 2.000000 422.000000 
22.000000 6.000000 418.000000 
22.000000 2.000000 422.000000 
18.000000 6.000000 422.000000 
22.000000 6.000000 422.000000 
26.000000 2.000000 418.000000 
30.000000 2.000000 418.000000 
