-253.500000 -162.500000 58.500000 
-253.500000 -175.500000 71.500000 
-240.500000 -162.500000 58.500000 
-240.500000 -175.500000 71.500000 
-253.500000 -162.500000 71.500000 
-240.500000 -162.500000 71.500000 
-227.500000 -175.500000 58.500000 
-214.500000 -175.500000 58.500000 
-227.500000 -162.500000 58.500000 
-214.500000 -162.500000 58.500000 
-227.500000 -162.500000 71.500000 
-305.500000 -149.500000 58.500000 
-292.500000 -149.500000 58.500000 
-305.500000 -149.500000 71.500000 
-292.500000 -149.500000 71.500000 
-279.500000 -149.500000 58.500000 
-266.500000 -149.500000 58.500000 
-279.500000 -136.500000 58.500000 
-279.500000 -149.500000 71.500000 
-266.500000 -136.500000 58.500000 
-266.500000 -149.500000 71.500000 
-279.500000 -136.500000 71.500000 
-266.500000 -136.500000 71.500000 
-253.500000 -149.500000 58.500000 
-240.500000 -149.500000 58.500000 
-253.500000 -136.500000 58.500000 
-253.500000 -149.500000 71.500000 
-240.500000 -136.500000 58.500000 
-240.500000 -149.500000 71.500000 
-253.500000 -136.500000 71.500000 
-227.500000 -149.500000 58.500000 
-214.500000 -149.500000 58.500000 
-227.500000 -136.500000 58.500000 
-214.500000 -136.500000 58.500000 
-253.500000 -123.500000 58.500000 
-240.500000 -123.500000 58.500000 
-227.500000 -123.500000 58.500000 
-214.500000 -123.500000 58.500000 
-227.500000 -110.500000 58.500000 
-214.500000 -110.500000 58.500000 
-214.500000 -97.500000 58.500000 
-201.500000 -136.500000 45.500000 
-188.500000 -136.500000 45.500000 
-175.500000 -136.500000 45.500000 
-162.500000 -136.500000 45.500000 
-201.500000 -123.500000 45.500000 
-188.500000 -123.500000 45.500000 
-201.500000 -110.500000 45.500000 
-188.500000 -110.500000 45.500000 
-175.500000 -123.500000 32.500000 
-162.500000 -123.500000 32.500000 
-175.500000 -110.500000 32.500000 
-175.500000 -123.500000 45.500000 
-162.500000 -110.500000 32.500000 
-162.500000 -123.500000 45.500000 
-175.500000 -110.500000 45.500000 
-162.500000 -110.500000 45.500000 
-201.500000 -175.500000 58.500000 
-201.500000 -162.500000 58.500000 
-136.500000 -110.500000 19.500000 
-149.500000 -136.500000 45.500000 
-123.500000 -110.500000 19.500000 
-110.500000 -110.500000 19.500000 
-149.500000 -123.500000 32.500000 
-136.500000 -123.500000 32.500000 
-149.500000 -110.500000 32.500000 
-149.500000 -123.500000 45.500000 
-136.500000 -110.500000 32.500000 
-149.500000 -110.500000 45.500000 
-136.500000 -110.500000 45.500000 
-123.500000 -123.500000 32.500000 
-123.500000 -110.500000 32.500000 
-201.500000 -149.500000 58.500000 
-188.500000 -149.500000 58.500000 
-201.500000 -136.500000 58.500000 
-188.500000 -136.500000 58.500000 
-175.500000 -136.500000 58.500000 
-201.500000 -123.500000 58.500000 
-188.500000 -123.500000 58.500000 
-201.500000 -110.500000 58.500000 
-188.500000 -110.500000 58.500000 
-175.500000 -123.500000 58.500000 
-175.500000 -110.500000 58.500000 
-201.500000 -97.500000 45.500000 
-188.500000 -97.500000 45.500000 
-188.500000 -84.500000 45.500000 
-175.500000 -97.500000 32.500000 
-162.500000 -97.500000 32.500000 
-175.500000 -84.500000 32.500000 
-175.500000 -97.500000 45.500000 
-162.500000 -84.500000 32.500000 
-162.500000 -97.500000 45.500000 
-175.500000 -84.500000 45.500000 
-162.500000 -84.500000 45.500000 
-162.500000 -71.500000 32.500000 
-162.500000 -71.500000 45.500000 
-149.500000 -97.500000 19.500000 
-136.500000 -84.500000 6.500000 
-136.500000 -97.500000 19.500000 
-149.500000 -84.500000 19.500000 
-136.500000 -84.500000 19.500000 
-123.500000 -97.500000 6.500000 
-110.500000 -97.500000 6.500000 
-123.500000 -84.500000 6.500000 
-123.500000 -97.500000 19.500000 
-110.500000 -84.500000 6.500000 
-110.500000 -97.500000 19.500000 
-123.500000 -84.500000 19.500000 
-110.500000 -84.500000 19.500000 
-136.500000 -71.500000 6.500000 
-149.500000 -71.500000 19.500000 
-136.500000 -58.500000 6.500000 
-136.500000 -71.500000 19.500000 
-149.500000 -97.500000 32.500000 
-136.500000 -97.500000 32.500000 
-149.500000 -84.500000 32.500000 
-149.500000 -97.500000 45.500000 
-136.500000 -84.500000 32.500000 
-149.500000 -84.500000 45.500000 
-123.500000 -71.500000 6.500000 
-110.500000 -71.500000 6.500000 
-123.500000 -58.500000 6.500000 
-123.500000 -71.500000 19.500000 
-110.500000 -58.500000 6.500000 
-110.500000 -71.500000 19.500000 
-123.500000 -97.500000 32.500000 
-110.500000 -97.500000 32.500000 
-123.500000 -84.500000 32.500000 
-110.500000 -84.500000 32.500000 
-149.500000 -71.500000 32.500000 
-136.500000 -71.500000 32.500000 
-201.500000 -97.500000 58.500000 
-188.500000 -97.500000 58.500000 
-188.500000 -84.500000 58.500000 
-175.500000 -97.500000 58.500000 
-175.500000 -84.500000 58.500000 
-110.500000 -45.500000 6.500000 
-97.500000 -97.500000 6.500000 
-97.500000 -84.500000 6.500000 
-97.500000 -97.500000 19.500000 
-84.500000 -84.500000 6.500000 
-97.500000 -84.500000 19.500000 
-97.500000 -71.500000 6.500000 
-84.500000 -71.500000 6.500000 
-97.500000 -58.500000 6.500000 
-97.500000 -45.500000 6.500000 
-6.500000 -32.500000 162.500000 
-6.500000 -32.500000 175.500000 
-6.500000 -19.500000 162.500000 
-6.500000 -6.500000 162.500000 
-6.500000 -19.500000 175.500000 
-6.500000 -6.500000 175.500000 
-6.500000 -45.500000 188.500000 
-19.500000 -32.500000 188.500000 
-19.500000 -45.500000 201.500000 
-6.500000 -32.500000 188.500000 
-6.500000 -45.500000 201.500000 
-19.500000 -32.500000 201.500000 
-6.500000 -32.500000 201.500000 
-19.500000 -19.500000 188.500000 
-6.500000 -19.500000 188.500000 
-19.500000 -6.500000 188.500000 
-19.500000 -19.500000 201.500000 
-6.500000 -6.500000 188.500000 
-6.500000 -19.500000 201.500000 
-19.500000 -6.500000 201.500000 
-6.500000 -6.500000 201.500000 
-214.500000 -136.500000 409.500000 
-227.500000 -123.500000 409.500000 
-214.500000 -123.500000 409.500000 
-227.500000 -110.500000 409.500000 
-214.500000 -110.500000 409.500000 
-227.500000 -97.500000 409.500000 
-214.500000 -97.500000 409.500000 
-188.500000 -162.500000 396.500000 
-188.500000 -175.500000 409.500000 
-188.500000 -162.500000 409.500000 
-175.500000 -162.500000 396.500000 
-162.500000 -162.500000 396.500000 
-136.500000 -110.500000 357.500000 
-123.500000 -123.500000 357.500000 
-110.500000 -110.500000 344.500000 
-110.500000 -123.500000 357.500000 
-123.500000 -110.500000 357.500000 
-110.500000 -110.500000 357.500000 
-149.500000 -162.500000 396.500000 
-136.500000 -162.500000 396.500000 
-162.500000 -149.500000 383.500000 
-162.500000 -136.500000 383.500000 
-188.500000 -149.500000 396.500000 
-188.500000 -136.500000 396.500000 
-188.500000 -149.500000 409.500000 
-201.500000 -136.500000 409.500000 
-188.500000 -136.500000 409.500000 
-162.500000 -123.500000 383.500000 
-162.500000 -110.500000 383.500000 
-175.500000 -149.500000 396.500000 
-162.500000 -149.500000 396.500000 
-175.500000 -136.500000 396.500000 
-175.500000 -149.500000 409.500000 
-162.500000 -136.500000 396.500000 
-175.500000 -136.500000 409.500000 
-162.500000 -136.500000 409.500000 
-188.500000 -123.500000 396.500000 
-201.500000 -123.500000 409.500000 
-188.500000 -110.500000 396.500000 
-188.500000 -123.500000 409.500000 
-201.500000 -110.500000 409.500000 
-188.500000 -110.500000 409.500000 
-175.500000 -123.500000 396.500000 
-162.500000 -123.500000 396.500000 
-175.500000 -110.500000 396.500000 
-175.500000 -123.500000 409.500000 
-162.500000 -110.500000 396.500000 
-162.500000 -123.500000 409.500000 
-175.500000 -110.500000 409.500000 
-162.500000 -110.500000 409.500000 
-149.500000 -149.500000 383.500000 
-136.500000 -149.500000 383.500000 
-149.500000 -136.500000 383.500000 
-136.500000 -136.500000 383.500000 
-123.500000 -149.500000 383.500000 
-110.500000 -149.500000 383.500000 
-123.500000 -136.500000 383.500000 
-110.500000 -136.500000 383.500000 
-149.500000 -123.500000 383.500000 
-136.500000 -110.500000 370.500000 
-136.500000 -123.500000 383.500000 
-149.500000 -110.500000 383.500000 
-136.500000 -110.500000 383.500000 
-149.500000 -149.500000 396.500000 
-149.500000 -136.500000 396.500000 
-136.500000 -136.500000 396.500000 
-123.500000 -123.500000 370.500000 
-110.500000 -123.500000 370.500000 
-123.500000 -110.500000 370.500000 
-123.500000 -123.500000 383.500000 
-110.500000 -110.500000 370.500000 
-110.500000 -123.500000 383.500000 
-123.500000 -110.500000 383.500000 
-110.500000 -110.500000 383.500000 
-149.500000 -123.500000 396.500000 
-136.500000 -123.500000 396.500000 
-149.500000 -110.500000 396.500000 
-136.500000 -110.500000 396.500000 
-149.500000 -110.500000 409.500000 
-32.500000 -84.500000 253.500000 
-19.500000 -58.500000 214.500000 
-6.500000 -58.500000 214.500000 
-19.500000 -58.500000 227.500000 
-6.500000 -58.500000 227.500000 
-19.500000 -84.500000 253.500000 
-6.500000 -84.500000 253.500000 
-32.500000 -58.500000 240.500000 
-32.500000 -71.500000 253.500000 
-45.500000 -58.500000 253.500000 
-32.500000 -58.500000 253.500000 
-6.500000 -71.500000 240.500000 
-19.500000 -58.500000 240.500000 
-19.500000 -71.500000 253.500000 
-6.500000 -58.500000 240.500000 
-6.500000 -71.500000 253.500000 
-19.500000 -58.500000 253.500000 
-6.500000 -58.500000 253.500000 
-58.500000 -71.500000 279.500000 
-71.500000 -58.500000 279.500000 
-58.500000 -58.500000 279.500000 
-71.500000 -84.500000 292.500000 
-58.500000 -84.500000 292.500000 
-71.500000 -84.500000 305.500000 
-58.500000 -84.500000 305.500000 
-84.500000 -71.500000 292.500000 
-84.500000 -58.500000 292.500000 
-84.500000 -71.500000 305.500000 
-97.500000 -58.500000 305.500000 
-84.500000 -58.500000 305.500000 
-71.500000 -71.500000 292.500000 
-58.500000 -71.500000 292.500000 
-71.500000 -58.500000 292.500000 
-71.500000 -71.500000 305.500000 
-58.500000 -58.500000 292.500000 
-58.500000 -71.500000 305.500000 
-71.500000 -58.500000 305.500000 
-58.500000 -58.500000 305.500000 
-32.500000 -45.500000 227.500000 
-32.500000 -32.500000 227.500000 
-19.500000 -45.500000 214.500000 
-6.500000 -45.500000 214.500000 
-19.500000 -32.500000 214.500000 
-19.500000 -45.500000 227.500000 
-6.500000 -32.500000 214.500000 
-6.500000 -45.500000 227.500000 
-19.500000 -32.500000 227.500000 
-6.500000 -32.500000 227.500000 
-32.500000 -19.500000 227.500000 
-32.500000 -45.500000 240.500000 
-45.500000 -45.500000 253.500000 
-32.500000 -32.500000 240.500000 
-32.500000 -45.500000 253.500000 
-45.500000 -32.500000 253.500000 
-32.500000 -32.500000 253.500000 
-19.500000 -19.500000 214.500000 
-6.500000 -19.500000 214.500000 
-19.500000 -6.500000 214.500000 
-19.500000 -19.500000 227.500000 
-6.500000 -6.500000 214.500000 
-6.500000 -19.500000 227.500000 
-19.500000 -6.500000 227.500000 
-6.500000 -6.500000 227.500000 
-19.500000 -45.500000 240.500000 
-6.500000 -45.500000 240.500000 
-19.500000 -32.500000 240.500000 
-19.500000 -45.500000 253.500000 
-6.500000 -32.500000 240.500000 
-6.500000 -45.500000 253.500000 
-19.500000 -32.500000 253.500000 
-6.500000 -32.500000 253.500000 
-45.500000 -19.500000 240.500000 
-32.500000 -19.500000 240.500000 
-45.500000 -19.500000 253.500000 
-32.500000 -6.500000 240.500000 
-32.500000 -19.500000 253.500000 
-32.500000 -6.500000 253.500000 
-19.500000 -19.500000 240.500000 
-6.500000 -19.500000 240.500000 
-19.500000 -6.500000 240.500000 
-6.500000 -6.500000 240.500000 
-6.500000 -19.500000 253.500000 
-19.500000 -6.500000 253.500000 
-6.500000 -6.500000 253.500000 
-45.500000 -84.500000 266.500000 
-32.500000 -84.500000 266.500000 
-45.500000 -84.500000 279.500000 
-32.500000 -84.500000 279.500000 
-19.500000 -84.500000 266.500000 
-6.500000 -84.500000 266.500000 
-45.500000 -71.500000 266.500000 
-32.500000 -71.500000 266.500000 
-45.500000 -58.500000 266.500000 
-45.500000 -71.500000 279.500000 
-32.500000 -58.500000 266.500000 
-32.500000 -71.500000 279.500000 
-45.500000 -58.500000 279.500000 
-32.500000 -58.500000 279.500000 
-45.500000 -97.500000 292.500000 
-45.500000 -84.500000 292.500000 
-45.500000 -97.500000 305.500000 
-45.500000 -84.500000 305.500000 
-19.500000 -71.500000 266.500000 
-6.500000 -71.500000 266.500000 
-19.500000 -58.500000 266.500000 
-6.500000 -71.500000 279.500000 
-45.500000 -71.500000 292.500000 
-45.500000 -58.500000 292.500000 
-45.500000 -71.500000 305.500000 
-45.500000 -58.500000 305.500000 
-71.500000 -45.500000 279.500000 
-58.500000 -45.500000 279.500000 
-71.500000 -32.500000 279.500000 
-58.500000 -32.500000 279.500000 
-97.500000 -45.500000 292.500000 
-84.500000 -45.500000 292.500000 
-97.500000 -45.500000 305.500000 
-84.500000 -32.500000 292.500000 
-84.500000 -45.500000 305.500000 
-84.500000 -32.500000 305.500000 
-58.500000 -19.500000 279.500000 
-71.500000 -45.500000 292.500000 
-58.500000 -45.500000 292.500000 
-71.500000 -32.500000 292.500000 
-71.500000 -45.500000 305.500000 
-58.500000 -32.500000 292.500000 
-58.500000 -45.500000 305.500000 
-71.500000 -32.500000 305.500000 
-45.500000 -45.500000 266.500000 
-32.500000 -45.500000 266.500000 
-45.500000 -32.500000 266.500000 
-45.500000 -45.500000 279.500000 
-32.500000 -32.500000 266.500000 
-32.500000 -45.500000 279.500000 
-45.500000 -32.500000 279.500000 
-32.500000 -32.500000 279.500000 
-19.500000 -45.500000 266.500000 
-6.500000 -32.500000 266.500000 
-6.500000 -32.500000 279.500000 
-45.500000 -19.500000 266.500000 
-32.500000 -19.500000 266.500000 
-45.500000 -19.500000 279.500000 
-32.500000 -19.500000 279.500000 
-45.500000 -45.500000 292.500000 
-45.500000 -32.500000 292.500000 
-6.500000 -19.500000 266.500000 
-19.500000 -6.500000 266.500000 
-6.500000 -6.500000 266.500000 
-6.500000 -19.500000 279.500000 
-6.500000 -6.500000 279.500000 
-6.500000 -32.500000 292.500000 
-6.500000 -32.500000 305.500000 
-6.500000 -19.500000 292.500000 
-6.500000 -6.500000 292.500000 
-6.500000 -19.500000 305.500000 
-6.500000 -6.500000 305.500000 
-97.500000 -110.500000 331.500000 
-84.500000 -110.500000 331.500000 
-71.500000 -110.500000 318.500000 
-58.500000 -110.500000 318.500000 
-71.500000 -110.500000 331.500000 
-97.500000 -123.500000 344.500000 
-97.500000 -110.500000 344.500000 
-97.500000 -123.500000 357.500000 
-97.500000 -110.500000 357.500000 
-45.500000 -110.500000 318.500000 
-97.500000 -149.500000 383.500000 
-97.500000 -123.500000 370.500000 
-97.500000 -110.500000 370.500000 
-162.500000 -71.500000 357.500000 
-110.500000 -97.500000 331.500000 
-110.500000 -84.500000 331.500000 
-149.500000 -97.500000 357.500000 
-136.500000 -97.500000 357.500000 
-149.500000 -84.500000 357.500000 
-136.500000 -84.500000 357.500000 
-110.500000 -71.500000 331.500000 
-110.500000 -58.500000 331.500000 
-110.500000 -97.500000 344.500000 
-123.500000 -97.500000 357.500000 
-110.500000 -84.500000 344.500000 
-110.500000 -97.500000 357.500000 
-123.500000 -84.500000 357.500000 
-110.500000 -84.500000 357.500000 
-149.500000 -71.500000 357.500000 
-136.500000 -71.500000 357.500000 
-149.500000 -58.500000 357.500000 
-136.500000 -58.500000 357.500000 
-110.500000 -71.500000 344.500000 
-123.500000 -71.500000 357.500000 
-110.500000 -58.500000 344.500000 
-110.500000 -71.500000 357.500000 
-123.500000 -58.500000 357.500000 
-110.500000 -58.500000 357.500000 
-162.500000 -97.500000 370.500000 
-175.500000 -97.500000 383.500000 
-162.500000 -84.500000 370.500000 
-162.500000 -97.500000 383.500000 
-175.500000 -84.500000 383.500000 
-162.500000 -84.500000 383.500000 
-188.500000 -97.500000 396.500000 
-201.500000 -97.500000 409.500000 
-188.500000 -84.500000 396.500000 
-188.500000 -97.500000 409.500000 
-201.500000 -84.500000 409.500000 
-188.500000 -84.500000 409.500000 
-162.500000 -71.500000 370.500000 
-175.500000 -71.500000 383.500000 
-162.500000 -71.500000 383.500000 
-175.500000 -97.500000 396.500000 
-162.500000 -97.500000 396.500000 
-175.500000 -84.500000 396.500000 
-175.500000 -97.500000 409.500000 
-162.500000 -84.500000 396.500000 
-162.500000 -97.500000 409.500000 
-175.500000 -84.500000 409.500000 
-162.500000 -84.500000 409.500000 
-175.500000 -71.500000 396.500000 
-162.500000 -71.500000 396.500000 
-175.500000 -71.500000 409.500000 
-110.500000 -45.500000 318.500000 
-110.500000 -45.500000 331.500000 
-110.500000 -45.500000 344.500000 
-123.500000 -45.500000 357.500000 
-110.500000 -45.500000 357.500000 
-149.500000 -97.500000 370.500000 
-136.500000 -97.500000 370.500000 
-149.500000 -84.500000 370.500000 
-149.500000 -97.500000 383.500000 
-136.500000 -84.500000 370.500000 
-136.500000 -97.500000 383.500000 
-149.500000 -84.500000 383.500000 
-136.500000 -84.500000 383.500000 
-123.500000 -97.500000 370.500000 
-110.500000 -97.500000 370.500000 
-123.500000 -84.500000 370.500000 
-123.500000 -97.500000 383.500000 
-110.500000 -84.500000 370.500000 
-110.500000 -97.500000 383.500000 
-123.500000 -84.500000 383.500000 
-149.500000 -71.500000 370.500000 
-136.500000 -71.500000 370.500000 
-149.500000 -58.500000 370.500000 
-149.500000 -71.500000 383.500000 
-136.500000 -58.500000 370.500000 
-136.500000 -71.500000 383.500000 
-149.500000 -97.500000 396.500000 
-136.500000 -97.500000 396.500000 
-149.500000 -84.500000 396.500000 
-123.500000 -71.500000 370.500000 
-110.500000 -71.500000 370.500000 
-84.500000 -97.500000 318.500000 
-97.500000 -97.500000 331.500000 
-84.500000 -84.500000 318.500000 
-84.500000 -97.500000 331.500000 
-97.500000 -84.500000 331.500000 
-84.500000 -84.500000 331.500000 
-71.500000 -97.500000 318.500000 
-58.500000 -97.500000 318.500000 
-71.500000 -84.500000 318.500000 
-71.500000 -97.500000 331.500000 
-58.500000 -84.500000 318.500000 
-58.500000 -97.500000 331.500000 
-71.500000 -84.500000 331.500000 
-58.500000 -84.500000 331.500000 
-97.500000 -71.500000 318.500000 
-84.500000 -71.500000 318.500000 
-97.500000 -58.500000 318.500000 
-97.500000 -71.500000 331.500000 
-84.500000 -58.500000 318.500000 
-84.500000 -71.500000 331.500000 
-97.500000 -58.500000 331.500000 
-84.500000 -58.500000 331.500000 
-97.500000 -97.500000 344.500000 
-84.500000 -97.500000 344.500000 
-97.500000 -84.500000 344.500000 
-97.500000 -97.500000 357.500000 
-84.500000 -84.500000 344.500000 
-97.500000 -84.500000 357.500000 
-71.500000 -71.500000 318.500000 
-58.500000 -71.500000 318.500000 
-71.500000 -58.500000 318.500000 
-71.500000 -71.500000 331.500000 
-58.500000 -58.500000 318.500000 
-71.500000 -58.500000 331.500000 
-97.500000 -71.500000 344.500000 
-84.500000 -71.500000 344.500000 
-97.500000 -58.500000 344.500000 
-97.500000 -71.500000 357.500000 
-84.500000 -58.500000 344.500000 
-97.500000 -58.500000 357.500000 
-45.500000 -97.500000 318.500000 
-45.500000 -84.500000 318.500000 
-45.500000 -71.500000 318.500000 
-6.500000 -58.500000 357.500000 
-97.500000 -45.500000 318.500000 
-84.500000 -45.500000 318.500000 
-97.500000 -32.500000 318.500000 
-97.500000 -45.500000 331.500000 
-84.500000 -45.500000 331.500000 
-71.500000 -45.500000 318.500000 
-97.500000 -45.500000 344.500000 
-97.500000 -97.500000 370.500000 
-6.500000 -32.500000 318.500000 
-6.500000 -32.500000 331.500000 
-6.500000 -19.500000 318.500000 
-6.500000 -6.500000 318.500000 
-6.500000 -19.500000 331.500000 
-6.500000 -45.500000 344.500000 
-19.500000 -32.500000 344.500000 
-19.500000 -45.500000 357.500000 
-6.500000 -32.500000 344.500000 
-6.500000 -45.500000 357.500000 
-19.500000 -32.500000 357.500000 
-6.500000 -32.500000 357.500000 
-6.500000 -19.500000 344.500000 
-19.500000 -19.500000 357.500000 
-6.500000 -6.500000 344.500000 
-6.500000 -19.500000 357.500000 
-6.500000 -6.500000 357.500000 
-6.500000 -58.500000 370.500000 
-6.500000 -58.500000 383.500000 
-19.500000 -84.500000 409.500000 
-6.500000 -84.500000 409.500000 
-32.500000 -71.500000 409.500000 
-32.500000 -58.500000 409.500000 
-19.500000 -71.500000 396.500000 
-6.500000 -71.500000 396.500000 
-19.500000 -58.500000 396.500000 
-19.500000 -71.500000 409.500000 
-6.500000 -58.500000 396.500000 
-6.500000 -71.500000 409.500000 
-19.500000 -58.500000 409.500000 
-6.500000 -58.500000 409.500000 
-19.500000 -45.500000 370.500000 
-6.500000 -45.500000 370.500000 
-19.500000 -32.500000 370.500000 
-19.500000 -45.500000 383.500000 
-6.500000 -32.500000 370.500000 
-6.500000 -45.500000 383.500000 
-19.500000 -32.500000 383.500000 
-6.500000 -32.500000 383.500000 
-32.500000 -45.500000 396.500000 
-32.500000 -32.500000 396.500000 
-32.500000 -45.500000 409.500000 
-32.500000 -32.500000 409.500000 
-19.500000 -19.500000 370.500000 
-6.500000 -19.500000 370.500000 
-19.500000 -6.500000 370.500000 
-19.500000 -19.500000 383.500000 
-6.500000 -6.500000 370.500000 
-6.500000 -19.500000 383.500000 
-19.500000 -6.500000 383.500000 
-6.500000 -6.500000 383.500000 
-19.500000 -45.500000 396.500000 
-6.500000 -45.500000 396.500000 
-19.500000 -32.500000 396.500000 
-19.500000 -45.500000 409.500000 
-6.500000 -32.500000 396.500000 
-6.500000 -45.500000 409.500000 
-19.500000 -32.500000 409.500000 
-6.500000 -32.500000 409.500000 
-32.500000 -19.500000 396.500000 
-32.500000 -19.500000 409.500000 
-32.500000 -6.500000 409.500000 
-19.500000 -19.500000 396.500000 
-6.500000 -19.500000 396.500000 
-19.500000 -6.500000 396.500000 
-19.500000 -19.500000 409.500000 
-6.500000 -6.500000 396.500000 
-6.500000 -19.500000 409.500000 
-19.500000 -6.500000 409.500000 
-6.500000 -6.500000 409.500000 
-461.500000 -292.500000 422.500000 
-448.500000 -292.500000 422.500000 
-448.500000 -292.500000 435.500000 
-435.500000 -292.500000 422.500000 
-422.500000 -292.500000 422.500000 
-461.500000 -279.500000 422.500000 
-448.500000 -279.500000 422.500000 
-461.500000 -266.500000 422.500000 
-461.500000 -279.500000 435.500000 
-448.500000 -266.500000 422.500000 
-448.500000 -279.500000 435.500000 
-461.500000 -266.500000 435.500000 
-448.500000 -266.500000 435.500000 
-435.500000 -279.500000 422.500000 
-422.500000 -279.500000 422.500000 
-435.500000 -266.500000 422.500000 
-435.500000 -279.500000 435.500000 
-422.500000 -279.500000 435.500000 
-435.500000 -266.500000 435.500000 
-422.500000 -266.500000 435.500000 
-448.500000 -266.500000 448.500000 
-435.500000 -279.500000 448.500000 
-435.500000 -266.500000 448.500000 
-422.500000 -266.500000 448.500000 
-474.500000 -253.500000 422.500000 
-461.500000 -253.500000 422.500000 
-448.500000 -253.500000 422.500000 
-461.500000 -253.500000 435.500000 
-448.500000 -253.500000 435.500000 
-461.500000 -240.500000 435.500000 
-448.500000 -240.500000 435.500000 
-435.500000 -253.500000 422.500000 
-435.500000 -253.500000 435.500000 
-422.500000 -253.500000 435.500000 
-435.500000 -240.500000 435.500000 
-422.500000 -240.500000 435.500000 
-448.500000 -227.500000 435.500000 
-461.500000 -253.500000 448.500000 
-448.500000 -253.500000 448.500000 
-461.500000 -240.500000 448.500000 
-448.500000 -240.500000 448.500000 
-435.500000 -227.500000 435.500000 
-422.500000 -227.500000 435.500000 
-435.500000 -214.500000 435.500000 
-422.500000 -214.500000 435.500000 
-435.500000 -253.500000 448.500000 
-422.500000 -253.500000 448.500000 
-435.500000 -240.500000 448.500000 
-422.500000 -240.500000 448.500000 
-448.500000 -227.500000 448.500000 
-448.500000 -214.500000 448.500000 
-435.500000 -227.500000 448.500000 
-422.500000 -227.500000 448.500000 
-435.500000 -214.500000 448.500000 
-422.500000 -214.500000 448.500000 
-422.500000 -201.500000 435.500000 
-435.500000 -201.500000 448.500000 
-422.500000 -201.500000 448.500000 
-422.500000 -188.500000 448.500000 
-474.500000 -188.500000 617.500000 
-487.500000 -188.500000 630.500000 
-474.500000 -188.500000 630.500000 
-474.500000 -175.500000 630.500000 
-474.500000 -175.500000 643.500000 
-461.500000 -188.500000 630.500000 
-448.500000 -188.500000 630.500000 
-461.500000 -175.500000 630.500000 
-448.500000 -175.500000 630.500000 
-461.500000 -162.500000 630.500000 
-461.500000 -175.500000 643.500000 
-448.500000 -162.500000 630.500000 
-448.500000 -175.500000 643.500000 
-461.500000 -162.500000 643.500000 
-448.500000 -162.500000 643.500000 
-435.500000 -175.500000 643.500000 
-422.500000 -175.500000 643.500000 
-435.500000 -162.500000 643.500000 
-422.500000 -162.500000 643.500000 
-422.500000 -188.500000 669.500000 
-448.500000 -175.500000 656.500000 
-448.500000 -162.500000 656.500000 
-435.500000 -175.500000 656.500000 
-422.500000 -175.500000 656.500000 
-435.500000 -162.500000 656.500000 
-435.500000 -175.500000 669.500000 
-422.500000 -162.500000 656.500000 
-422.500000 -175.500000 669.500000 
-435.500000 -162.500000 669.500000 
-422.500000 -162.500000 669.500000 
-435.500000 -149.500000 643.500000 
-422.500000 -149.500000 643.500000 
-435.500000 -149.500000 656.500000 
-422.500000 -149.500000 656.500000 
-435.500000 -149.500000 669.500000 
-422.500000 -136.500000 656.500000 
-422.500000 -149.500000 669.500000 
-422.500000 -136.500000 669.500000 
-422.500000 -162.500000 682.500000 
-422.500000 -149.500000 682.500000 
-422.500000 -136.500000 682.500000 
-409.500000 -279.500000 435.500000 
-396.500000 -279.500000 435.500000 
-409.500000 -266.500000 435.500000 
-396.500000 -266.500000 435.500000 
-383.500000 -266.500000 435.500000 
-409.500000 -266.500000 448.500000 
-396.500000 -266.500000 448.500000 
-396.500000 -266.500000 461.500000 
-383.500000 -266.500000 448.500000 
-370.500000 -266.500000 448.500000 
-383.500000 -266.500000 461.500000 
-370.500000 -266.500000 461.500000 
-318.500000 -266.500000 435.500000 
-357.500000 -266.500000 448.500000 
-344.500000 -266.500000 448.500000 
-357.500000 -266.500000 461.500000 
-344.500000 -266.500000 461.500000 
-331.500000 -266.500000 448.500000 
-318.500000 -266.500000 448.500000 
-409.500000 -253.500000 435.500000 
-396.500000 -253.500000 435.500000 
-409.500000 -240.500000 435.500000 
-396.500000 -240.500000 435.500000 
-383.500000 -253.500000 435.500000 
-383.500000 -240.500000 435.500000 
-409.500000 -227.500000 435.500000 
-396.500000 -227.500000 435.500000 
-409.500000 -214.500000 435.500000 
-396.500000 -214.500000 435.500000 
-409.500000 -253.500000 448.500000 
-396.500000 -253.500000 448.500000 
-409.500000 -240.500000 448.500000 
-396.500000 -240.500000 448.500000 
-396.500000 -253.500000 461.500000 
-409.500000 -240.500000 461.500000 
-396.500000 -240.500000 461.500000 
-383.500000 -227.500000 435.500000 
-370.500000 -227.500000 435.500000 
-383.500000 -214.500000 435.500000 
-370.500000 -214.500000 435.500000 
-383.500000 -253.500000 448.500000 
-370.500000 -253.500000 448.500000 
-383.500000 -240.500000 448.500000 
-383.500000 -253.500000 461.500000 
-370.500000 -240.500000 448.500000 
-370.500000 -253.500000 461.500000 
-383.500000 -240.500000 461.500000 
-370.500000 -240.500000 461.500000 
-409.500000 -227.500000 448.500000 
-396.500000 -227.500000 448.500000 
-409.500000 -214.500000 448.500000 
-409.500000 -227.500000 461.500000 
-396.500000 -214.500000 448.500000 
-396.500000 -227.500000 461.500000 
-396.500000 -214.500000 461.500000 
-383.500000 -227.500000 448.500000 
-370.500000 -227.500000 448.500000 
-383.500000 -214.500000 448.500000 
-383.500000 -227.500000 461.500000 
-370.500000 -214.500000 448.500000 
-370.500000 -227.500000 461.500000 
-383.500000 -214.500000 461.500000 
-370.500000 -214.500000 461.500000 
-357.500000 -253.500000 435.500000 
-344.500000 -240.500000 435.500000 
-318.500000 -253.500000 435.500000 
-318.500000 -240.500000 435.500000 
-344.500000 -227.500000 435.500000 
-357.500000 -253.500000 448.500000 
-344.500000 -253.500000 448.500000 
-357.500000 -240.500000 448.500000 
-357.500000 -253.500000 461.500000 
-344.500000 -240.500000 448.500000 
-344.500000 -253.500000 461.500000 
-357.500000 -240.500000 461.500000 
-344.500000 -240.500000 461.500000 
-318.500000 -227.500000 435.500000 
-331.500000 -253.500000 448.500000 
-318.500000 -253.500000 448.500000 
-331.500000 -240.500000 448.500000 
-331.500000 -253.500000 461.500000 
-318.500000 -240.500000 448.500000 
-331.500000 -240.500000 461.500000 
-318.500000 -240.500000 461.500000 
-357.500000 -227.500000 448.500000 
-344.500000 -227.500000 448.500000 
-357.500000 -214.500000 448.500000 
-357.500000 -227.500000 461.500000 
-344.500000 -214.500000 448.500000 
-344.500000 -227.500000 461.500000 
-357.500000 -214.500000 461.500000 
-344.500000 -214.500000 461.500000 
-331.500000 -227.500000 448.500000 
-318.500000 -227.500000 448.500000 
-331.500000 -214.500000 448.500000 
-331.500000 -227.500000 461.500000 
-318.500000 -214.500000 448.500000 
-318.500000 -227.500000 461.500000 
-331.500000 -214.500000 461.500000 
-318.500000 -214.500000 461.500000 
-370.500000 -253.500000 474.500000 
-370.500000 -240.500000 474.500000 
-357.500000 -253.500000 474.500000 
-357.500000 -240.500000 474.500000 
-344.500000 -240.500000 474.500000 
-357.500000 -227.500000 474.500000 
-344.500000 -227.500000 474.500000 
-305.500000 -266.500000 435.500000 
-292.500000 -266.500000 435.500000 
-279.500000 -266.500000 435.500000 
-305.500000 -266.500000 448.500000 
-292.500000 -266.500000 448.500000 
-305.500000 -253.500000 435.500000 
-292.500000 -253.500000 435.500000 
-305.500000 -240.500000 435.500000 
-292.500000 -240.500000 435.500000 
-279.500000 -253.500000 435.500000 
-279.500000 -240.500000 435.500000 
-266.500000 -240.500000 435.500000 
-305.500000 -227.500000 435.500000 
-292.500000 -227.500000 435.500000 
-305.500000 -214.500000 435.500000 
-292.500000 -214.500000 435.500000 
-305.500000 -253.500000 448.500000 
-292.500000 -253.500000 448.500000 
-305.500000 -240.500000 448.500000 
-292.500000 -240.500000 448.500000 
-279.500000 -227.500000 435.500000 
-266.500000 -227.500000 435.500000 
-279.500000 -214.500000 435.500000 
-266.500000 -214.500000 435.500000 
-279.500000 -253.500000 448.500000 
-266.500000 -253.500000 448.500000 
-279.500000 -240.500000 448.500000 
-266.500000 -240.500000 448.500000 
-305.500000 -227.500000 448.500000 
-292.500000 -227.500000 448.500000 
-305.500000 -214.500000 448.500000 
-305.500000 -227.500000 461.500000 
-292.500000 -214.500000 448.500000 
-305.500000 -214.500000 461.500000 
-292.500000 -214.500000 461.500000 
-279.500000 -227.500000 448.500000 
-266.500000 -227.500000 448.500000 
-279.500000 -214.500000 448.500000 
-266.500000 -214.500000 448.500000 
-253.500000 -240.500000 435.500000 
-240.500000 -240.500000 435.500000 
-253.500000 -227.500000 435.500000 
-240.500000 -227.500000 435.500000 
-253.500000 -214.500000 435.500000 
-253.500000 -240.500000 448.500000 
-253.500000 -227.500000 448.500000 
-240.500000 -227.500000 448.500000 
-253.500000 -214.500000 448.500000 
-240.500000 -214.500000 448.500000 
-227.500000 -214.500000 448.500000 
-97.500000 -240.500000 617.500000 
-409.500000 -201.500000 435.500000 
-396.500000 -201.500000 435.500000 
-396.500000 -188.500000 435.500000 
-383.500000 -201.500000 435.500000 
-370.500000 -201.500000 435.500000 
-383.500000 -188.500000 435.500000 
-370.500000 -188.500000 435.500000 
-409.500000 -201.500000 448.500000 
-396.500000 -201.500000 448.500000 
-409.500000 -188.500000 448.500000 
-396.500000 -188.500000 448.500000 
-383.500000 -175.500000 435.500000 
-370.500000 -175.500000 435.500000 
-383.500000 -201.500000 448.500000 
-370.500000 -201.500000 448.500000 
-383.500000 -188.500000 448.500000 
-383.500000 -201.500000 461.500000 
-370.500000 -188.500000 448.500000 
-370.500000 -201.500000 461.500000 
-370.500000 -188.500000 461.500000 
-396.500000 -175.500000 448.500000 
-383.500000 -175.500000 448.500000 
-370.500000 -175.500000 448.500000 
-370.500000 -162.500000 448.500000 
-370.500000 -175.500000 461.500000 
-357.500000 -201.500000 435.500000 
-357.500000 -188.500000 435.500000 
-318.500000 -201.500000 435.500000 
-318.500000 -188.500000 435.500000 
-357.500000 -175.500000 435.500000 
-344.500000 -175.500000 435.500000 
-357.500000 -201.500000 448.500000 
-344.500000 -201.500000 448.500000 
-357.500000 -188.500000 448.500000 
-357.500000 -201.500000 461.500000 
-344.500000 -188.500000 448.500000 
-344.500000 -201.500000 461.500000 
-357.500000 -188.500000 461.500000 
-344.500000 -188.500000 461.500000 
-331.500000 -201.500000 448.500000 
-318.500000 -201.500000 448.500000 
-331.500000 -201.500000 461.500000 
-318.500000 -188.500000 448.500000 
-318.500000 -201.500000 461.500000 
-331.500000 -188.500000 461.500000 
-318.500000 -188.500000 461.500000 
-357.500000 -175.500000 448.500000 
-344.500000 -175.500000 448.500000 
-357.500000 -162.500000 448.500000 
-357.500000 -175.500000 461.500000 
-344.500000 -162.500000 448.500000 
-344.500000 -175.500000 461.500000 
-344.500000 -162.500000 461.500000 
-318.500000 -175.500000 448.500000 
-331.500000 -162.500000 448.500000 
-331.500000 -175.500000 461.500000 
-318.500000 -175.500000 461.500000 
-331.500000 -162.500000 461.500000 
-318.500000 -162.500000 461.500000 
-357.500000 -149.500000 448.500000 
-344.500000 -149.500000 448.500000 
-331.500000 -149.500000 448.500000 
-331.500000 -136.500000 448.500000 
-331.500000 -149.500000 461.500000 
-318.500000 -136.500000 448.500000 
-318.500000 -149.500000 461.500000 
-331.500000 -136.500000 461.500000 
-318.500000 -136.500000 461.500000 
-318.500000 -123.500000 448.500000 
-318.500000 -123.500000 461.500000 
-318.500000 -175.500000 474.500000 
-305.500000 -201.500000 435.500000 
-292.500000 -201.500000 435.500000 
-292.500000 -188.500000 435.500000 
-279.500000 -201.500000 435.500000 
-266.500000 -201.500000 435.500000 
-305.500000 -201.500000 448.500000 
-292.500000 -201.500000 448.500000 
-305.500000 -188.500000 448.500000 
-305.500000 -201.500000 461.500000 
-292.500000 -188.500000 448.500000 
-292.500000 -201.500000 461.500000 
-305.500000 -188.500000 461.500000 
-292.500000 -188.500000 461.500000 
-279.500000 -201.500000 448.500000 
-266.500000 -201.500000 448.500000 
-279.500000 -188.500000 448.500000 
-279.500000 -201.500000 461.500000 
-266.500000 -188.500000 448.500000 
-279.500000 -188.500000 461.500000 
-266.500000 -188.500000 461.500000 
-305.500000 -175.500000 448.500000 
-292.500000 -175.500000 448.500000 
-305.500000 -162.500000 448.500000 
-305.500000 -175.500000 461.500000 
-292.500000 -162.500000 448.500000 
-292.500000 -175.500000 461.500000 
-305.500000 -162.500000 461.500000 
-292.500000 -162.500000 461.500000 
-279.500000 -175.500000 448.500000 
-266.500000 -175.500000 448.500000 
-279.500000 -162.500000 448.500000 
-279.500000 -175.500000 461.500000 
-266.500000 -162.500000 448.500000 
-266.500000 -175.500000 461.500000 
-279.500000 -162.500000 461.500000 
-266.500000 -162.500000 461.500000 
-253.500000 -201.500000 435.500000 
-214.500000 -188.500000 435.500000 
-240.500000 -175.500000 435.500000 
-253.500000 -162.500000 435.500000 
-240.500000 -162.500000 435.500000 
-253.500000 -201.500000 448.500000 
-240.500000 -201.500000 448.500000 
-253.500000 -188.500000 448.500000 
-240.500000 -188.500000 448.500000 
-253.500000 -188.500000 461.500000 
-240.500000 -188.500000 461.500000 
-227.500000 -175.500000 435.500000 
-214.500000 -162.500000 422.500000 
-214.500000 -175.500000 435.500000 
-227.500000 -162.500000 435.500000 
-214.500000 -162.500000 435.500000 
-227.500000 -201.500000 448.500000 
-214.500000 -201.500000 448.500000 
-227.500000 -188.500000 448.500000 
-214.500000 -188.500000 448.500000 
-227.500000 -188.500000 461.500000 
-253.500000 -175.500000 448.500000 
-240.500000 -175.500000 448.500000 
-253.500000 -162.500000 448.500000 
-253.500000 -175.500000 461.500000 
-240.500000 -162.500000 448.500000 
-240.500000 -175.500000 461.500000 
-253.500000 -162.500000 461.500000 
-240.500000 -162.500000 461.500000 
-227.500000 -175.500000 448.500000 
-214.500000 -175.500000 448.500000 
-227.500000 -162.500000 448.500000 
-227.500000 -175.500000 461.500000 
-214.500000 -162.500000 448.500000 
-227.500000 -162.500000 461.500000 
-305.500000 -149.500000 448.500000 
-292.500000 -149.500000 448.500000 
-305.500000 -149.500000 461.500000 
-292.500000 -136.500000 448.500000 
-292.500000 -149.500000 461.500000 
-305.500000 -136.500000 461.500000 
-292.500000 -136.500000 461.500000 
-279.500000 -149.500000 448.500000 
-266.500000 -149.500000 448.500000 
-279.500000 -136.500000 448.500000 
-279.500000 -149.500000 461.500000 
-266.500000 -136.500000 448.500000 
-266.500000 -149.500000 461.500000 
-279.500000 -136.500000 461.500000 
-266.500000 -136.500000 461.500000 
-305.500000 -123.500000 461.500000 
-292.500000 -123.500000 461.500000 
-279.500000 -123.500000 448.500000 
-266.500000 -123.500000 448.500000 
-279.500000 -110.500000 448.500000 
-279.500000 -123.500000 461.500000 
-266.500000 -110.500000 448.500000 
-266.500000 -123.500000 461.500000 
-305.500000 -175.500000 474.500000 
-292.500000 -175.500000 474.500000 
-305.500000 -162.500000 474.500000 
-292.500000 -162.500000 474.500000 
-279.500000 -162.500000 474.500000 
-253.500000 -149.500000 435.500000 
-240.500000 -149.500000 435.500000 
-253.500000 -136.500000 435.500000 
-240.500000 -136.500000 435.500000 
-214.500000 -149.500000 422.500000 
-227.500000 -136.500000 422.500000 
-227.500000 -149.500000 435.500000 
-214.500000 -136.500000 422.500000 
-214.500000 -149.500000 435.500000 
-227.500000 -136.500000 435.500000 
-214.500000 -136.500000 435.500000 
-240.500000 -123.500000 422.500000 
-253.500000 -123.500000 435.500000 
-240.500000 -110.500000 422.500000 
-240.500000 -123.500000 435.500000 
-253.500000 -110.500000 435.500000 
-240.500000 -110.500000 435.500000 
-253.500000 -149.500000 448.500000 
-240.500000 -149.500000 448.500000 
-253.500000 -136.500000 448.500000 
-253.500000 -149.500000 461.500000 
-240.500000 -136.500000 448.500000 
-240.500000 -149.500000 461.500000 
-253.500000 -136.500000 461.500000 
-227.500000 -123.500000 422.500000 
-214.500000 -123.500000 422.500000 
-227.500000 -110.500000 422.500000 
-227.500000 -123.500000 435.500000 
-214.500000 -110.500000 422.500000 
-214.500000 -123.500000 435.500000 
-227.500000 -110.500000 435.500000 
-214.500000 -110.500000 435.500000 
-227.500000 -149.500000 448.500000 
-214.500000 -149.500000 448.500000 
-227.500000 -136.500000 448.500000 
-214.500000 -136.500000 448.500000 
-253.500000 -123.500000 448.500000 
-240.500000 -123.500000 448.500000 
-253.500000 -110.500000 448.500000 
-253.500000 -123.500000 461.500000 
-240.500000 -110.500000 448.500000 
-227.500000 -123.500000 448.500000 
-305.500000 -149.500000 474.500000 
-292.500000 -149.500000 474.500000 
-305.500000 -136.500000 474.500000 
-292.500000 -136.500000 474.500000 
-279.500000 -149.500000 474.500000 
-279.500000 -136.500000 474.500000 
-266.500000 -136.500000 474.500000 
-266.500000 -123.500000 474.500000 
-214.500000 -97.500000 422.500000 
-201.500000 -188.500000 422.500000 
-201.500000 -175.500000 422.500000 
-201.500000 -162.500000 422.500000 
-201.500000 -175.500000 435.500000 
-188.500000 -162.500000 422.500000 
-201.500000 -162.500000 435.500000 
-188.500000 -162.500000 435.500000 
-201.500000 -175.500000 448.500000 
-201.500000 -162.500000 448.500000 
-201.500000 -149.500000 422.500000 
-188.500000 -149.500000 422.500000 
-201.500000 -136.500000 422.500000 
-201.500000 -149.500000 435.500000 
-188.500000 -136.500000 422.500000 
-188.500000 -149.500000 435.500000 
-201.500000 -136.500000 435.500000 
-188.500000 -136.500000 435.500000 
-175.500000 -136.500000 422.500000 
-201.500000 -123.500000 422.500000 
-188.500000 -123.500000 422.500000 
-201.500000 -110.500000 422.500000 
-201.500000 -123.500000 435.500000 
-188.500000 -110.500000 422.500000 
-175.500000 -123.500000 422.500000 
-175.500000 -110.500000 422.500000 
-6.500000 -110.500000 435.500000 
-19.500000 -110.500000 448.500000 
-6.500000 -110.500000 448.500000 
-201.500000 -97.500000 422.500000 
-188.500000 -97.500000 422.500000 
-201.500000 -84.500000 422.500000 
-188.500000 -84.500000 422.500000 
-201.500000 -71.500000 422.500000 
-110.500000 -58.500000 513.500000 
-110.500000 -45.500000 500.500000 
-110.500000 -32.500000 500.500000 
-110.500000 -45.500000 513.500000 
-110.500000 -32.500000 513.500000 
-110.500000 -19.500000 513.500000 
-110.500000 -110.500000 552.500000 
-110.500000 -110.500000 565.500000 
-188.500000 -136.500000 617.500000 
-162.500000 -110.500000 591.500000 
-162.500000 -136.500000 604.500000 
-175.500000 -136.500000 617.500000 
-188.500000 -123.500000 617.500000 
-188.500000 -110.500000 617.500000 
-175.500000 -123.500000 604.500000 
-162.500000 -123.500000 604.500000 
-175.500000 -110.500000 604.500000 
-175.500000 -123.500000 617.500000 
-162.500000 -110.500000 604.500000 
-175.500000 -110.500000 617.500000 
-162.500000 -110.500000 617.500000 
-149.500000 -123.500000 591.500000 
-136.500000 -123.500000 591.500000 
-149.500000 -110.500000 591.500000 
-136.500000 -110.500000 591.500000 
-149.500000 -136.500000 604.500000 
-136.500000 -136.500000 604.500000 
-149.500000 -136.500000 617.500000 
-123.500000 -110.500000 578.500000 
-123.500000 -123.500000 591.500000 
-110.500000 -110.500000 578.500000 
-110.500000 -123.500000 591.500000 
-123.500000 -110.500000 591.500000 
-110.500000 -110.500000 591.500000 
-149.500000 -123.500000 604.500000 
-136.500000 -123.500000 604.500000 
-149.500000 -110.500000 604.500000 
-136.500000 -110.500000 604.500000 
-58.500000 -84.500000 435.500000 
-58.500000 -71.500000 435.500000 
-58.500000 -58.500000 435.500000 
-58.500000 -84.500000 448.500000 
-58.500000 -84.500000 461.500000 
-58.500000 -71.500000 448.500000 
-71.500000 -58.500000 448.500000 
-58.500000 -58.500000 448.500000 
-58.500000 -71.500000 461.500000 
-71.500000 -58.500000 461.500000 
-58.500000 -58.500000 461.500000 
-45.500000 -84.500000 422.500000 
-32.500000 -84.500000 422.500000 
-32.500000 -97.500000 435.500000 
-45.500000 -84.500000 435.500000 
-32.500000 -84.500000 435.500000 
-19.500000 -97.500000 422.500000 
-6.500000 -97.500000 422.500000 
-19.500000 -84.500000 422.500000 
-19.500000 -97.500000 435.500000 
-6.500000 -84.500000 422.500000 
-6.500000 -97.500000 435.500000 
-19.500000 -84.500000 435.500000 
-6.500000 -84.500000 435.500000 
-45.500000 -71.500000 422.500000 
-32.500000 -71.500000 422.500000 
-45.500000 -58.500000 422.500000 
-45.500000 -71.500000 435.500000 
-32.500000 -58.500000 422.500000 
-32.500000 -71.500000 435.500000 
-45.500000 -58.500000 435.500000 
-32.500000 -58.500000 435.500000 
-45.500000 -84.500000 448.500000 
-32.500000 -84.500000 448.500000 
-45.500000 -84.500000 461.500000 
-32.500000 -84.500000 461.500000 
-19.500000 -71.500000 422.500000 
-6.500000 -71.500000 422.500000 
-19.500000 -58.500000 422.500000 
-19.500000 -71.500000 435.500000 
-6.500000 -58.500000 422.500000 
-6.500000 -71.500000 435.500000 
-19.500000 -58.500000 435.500000 
-6.500000 -58.500000 435.500000 
-19.500000 -84.500000 448.500000 
-6.500000 -84.500000 448.500000 
-19.500000 -84.500000 461.500000 
-6.500000 -84.500000 461.500000 
-45.500000 -71.500000 448.500000 
-32.500000 -71.500000 448.500000 
-45.500000 -58.500000 448.500000 
-45.500000 -71.500000 461.500000 
-32.500000 -58.500000 448.500000 
-32.500000 -71.500000 461.500000 
-45.500000 -58.500000 461.500000 
-32.500000 -58.500000 461.500000 
-19.500000 -71.500000 448.500000 
-6.500000 -71.500000 448.500000 
-19.500000 -58.500000 448.500000 
-19.500000 -71.500000 461.500000 
-6.500000 -58.500000 448.500000 
-6.500000 -71.500000 461.500000 
-19.500000 -58.500000 461.500000 
-6.500000 -58.500000 461.500000 
-58.500000 -45.500000 435.500000 
-58.500000 -32.500000 435.500000 
-84.500000 -32.500000 461.500000 
-71.500000 -45.500000 448.500000 
-58.500000 -45.500000 448.500000 
-71.500000 -32.500000 448.500000 
-71.500000 -45.500000 461.500000 
-58.500000 -32.500000 448.500000 
-58.500000 -45.500000 461.500000 
-71.500000 -32.500000 461.500000 
-58.500000 -32.500000 461.500000 
-84.500000 -19.500000 461.500000 
-84.500000 -6.500000 461.500000 
-71.500000 -19.500000 448.500000 
-58.500000 -19.500000 448.500000 
-71.500000 -6.500000 448.500000 
-71.500000 -19.500000 461.500000 
-58.500000 -6.500000 448.500000 
-58.500000 -19.500000 461.500000 
-71.500000 -6.500000 461.500000 
-58.500000 -6.500000 461.500000 
-58.500000 -84.500000 474.500000 
-58.500000 -84.500000 487.500000 
-84.500000 -58.500000 474.500000 
-84.500000 -71.500000 487.500000 
-97.500000 -58.500000 487.500000 
-84.500000 -58.500000 487.500000 
-84.500000 -97.500000 513.500000 
-97.500000 -84.500000 513.500000 
-84.500000 -84.500000 513.500000 
-71.500000 -71.500000 474.500000 
-58.500000 -71.500000 474.500000 
-71.500000 -58.500000 474.500000 
-71.500000 -71.500000 487.500000 
-58.500000 -58.500000 474.500000 
-58.500000 -71.500000 487.500000 
-71.500000 -58.500000 487.500000 
-58.500000 -58.500000 487.500000 
-58.500000 -97.500000 500.500000 
-71.500000 -84.500000 500.500000 
-71.500000 -97.500000 513.500000 
-58.500000 -84.500000 500.500000 
-58.500000 -97.500000 513.500000 
-71.500000 -84.500000 513.500000 
-58.500000 -84.500000 513.500000 
-84.500000 -71.500000 500.500000 
-97.500000 -58.500000 500.500000 
-97.500000 -71.500000 513.500000 
-84.500000 -58.500000 500.500000 
-84.500000 -71.500000 513.500000 
-97.500000 -58.500000 513.500000 
-84.500000 -58.500000 513.500000 
-71.500000 -71.500000 500.500000 
-58.500000 -71.500000 500.500000 
-71.500000 -58.500000 500.500000 
-71.500000 -71.500000 513.500000 
-58.500000 -58.500000 500.500000 
-58.500000 -71.500000 513.500000 
-71.500000 -58.500000 513.500000 
-58.500000 -58.500000 513.500000 
-45.500000 -45.500000 422.500000 
-32.500000 -45.500000 422.500000 
-45.500000 -32.500000 422.500000 
-45.500000 -45.500000 435.500000 
-32.500000 -32.500000 422.500000 
-32.500000 -45.500000 435.500000 
-45.500000 -32.500000 435.500000 
-32.500000 -32.500000 435.500000 
-19.500000 -45.500000 422.500000 
-6.500000 -45.500000 422.500000 
-19.500000 -32.500000 422.500000 
-19.500000 -45.500000 435.500000 
-6.500000 -32.500000 422.500000 
-6.500000 -45.500000 435.500000 
-19.500000 -32.500000 435.500000 
-6.500000 -32.500000 435.500000 
-45.500000 -19.500000 422.500000 
-32.500000 -19.500000 422.500000 
-45.500000 -6.500000 422.500000 
-45.500000 -19.500000 435.500000 
-32.500000 -6.500000 422.500000 
-32.500000 -19.500000 435.500000 
-45.500000 -6.500000 435.500000 
-32.500000 -6.500000 435.500000 
-45.500000 -45.500000 448.500000 
-32.500000 -45.500000 448.500000 
-45.500000 -32.500000 448.500000 
-45.500000 -45.500000 461.500000 
-32.500000 -32.500000 448.500000 
-32.500000 -45.500000 461.500000 
-45.500000 -32.500000 461.500000 
-32.500000 -32.500000 461.500000 
-19.500000 -19.500000 422.500000 
-6.500000 -19.500000 422.500000 
-19.500000 -6.500000 422.500000 
-19.500000 -19.500000 435.500000 
-6.500000 -6.500000 422.500000 
-6.500000 -19.500000 435.500000 
-19.500000 -6.500000 435.500000 
-6.500000 -6.500000 435.500000 
-19.500000 -45.500000 448.500000 
-6.500000 -45.500000 448.500000 
-19.500000 -32.500000 448.500000 
-19.500000 -45.500000 461.500000 
-6.500000 -32.500000 448.500000 
-6.500000 -45.500000 461.500000 
-19.500000 -32.500000 461.500000 
-6.500000 -32.500000 461.500000 
-45.500000 -19.500000 448.500000 
-32.500000 -19.500000 448.500000 
-45.500000 -6.500000 448.500000 
-45.500000 -19.500000 461.500000 
-32.500000 -6.500000 448.500000 
-32.500000 -19.500000 461.500000 
-45.500000 -6.500000 461.500000 
-32.500000 -6.500000 461.500000 
-19.500000 -19.500000 448.500000 
-6.500000 -19.500000 448.500000 
-19.500000 -6.500000 448.500000 
-19.500000 -19.500000 461.500000 
-6.500000 -6.500000 448.500000 
-6.500000 -19.500000 461.500000 
-19.500000 -6.500000 461.500000 
-6.500000 -6.500000 461.500000 
-45.500000 -84.500000 474.500000 
-45.500000 -84.500000 487.500000 
-32.500000 -84.500000 487.500000 
-19.500000 -84.500000 474.500000 
-19.500000 -84.500000 487.500000 
-6.500000 -84.500000 487.500000 
-45.500000 -71.500000 474.500000 
-45.500000 -58.500000 474.500000 
-45.500000 -71.500000 487.500000 
-32.500000 -71.500000 487.500000 
-45.500000 -58.500000 487.500000 
-45.500000 -97.500000 500.500000 
-32.500000 -97.500000 500.500000 
-45.500000 -84.500000 500.500000 
-45.500000 -97.500000 513.500000 
-32.500000 -84.500000 500.500000 
-32.500000 -97.500000 513.500000 
-45.500000 -84.500000 513.500000 
-19.500000 -71.500000 474.500000 
