-210.000000 -78.000000 666.000000 
-198.000000 -78.000000 666.000000 
-222.000000 -66.000000 654.000000 
-234.000000 -66.000000 666.000000 
-222.000000 -66.000000 666.000000 
-234.000000 -54.000000 666.000000 
-222.000000 -54.000000 666.000000 
-210.000000 -66.000000 654.000000 
-198.000000 -66.000000 654.000000 
-210.000000 -54.000000 654.000000 
-210.000000 -66.000000 666.000000 
-198.000000 -54.000000 654.000000 
-198.000000 -66.000000 666.000000 
-210.000000 -54.000000 666.000000 
-198.000000 -54.000000 666.000000 
-246.000000 -186.000000 678.000000 
-282.000000 -162.000000 678.000000 
-270.000000 -162.000000 678.000000 
-282.000000 -150.000000 678.000000 
-270.000000 -150.000000 678.000000 
-258.000000 -150.000000 678.000000 
-246.000000 -150.000000 678.000000 
-234.000000 -174.000000 678.000000 
-282.000000 -138.000000 678.000000 
-270.000000 -138.000000 678.000000 
-282.000000 -126.000000 678.000000 
-282.000000 -138.000000 690.000000 
-270.000000 -126.000000 678.000000 
-270.000000 -138.000000 690.000000 
-282.000000 -126.000000 690.000000 
-270.000000 -126.000000 690.000000 
-258.000000 -138.000000 678.000000 
-246.000000 -138.000000 678.000000 
-258.000000 -126.000000 678.000000 
-258.000000 -138.000000 690.000000 
-246.000000 -126.000000 678.000000 
-246.000000 -138.000000 690.000000 
-258.000000 -126.000000 690.000000 
-246.000000 -126.000000 690.000000 
-282.000000 -114.000000 678.000000 
-270.000000 -114.000000 678.000000 
-282.000000 -102.000000 678.000000 
-282.000000 -114.000000 690.000000 
-270.000000 -102.000000 678.000000 
-270.000000 -114.000000 690.000000 
-282.000000 -102.000000 690.000000 
-270.000000 -102.000000 690.000000 
-258.000000 -114.000000 678.000000 
-246.000000 -114.000000 678.000000 
-258.000000 -102.000000 678.000000 
-258.000000 -114.000000 690.000000 
-246.000000 -102.000000 678.000000 
-234.000000 -138.000000 678.000000 
-222.000000 -138.000000 678.000000 
-234.000000 -126.000000 678.000000 
-234.000000 -138.000000 690.000000 
-222.000000 -126.000000 678.000000 
-234.000000 -126.000000 690.000000 
-210.000000 -126.000000 678.000000 
-234.000000 -114.000000 678.000000 
-222.000000 -114.000000 678.000000 
-234.000000 -102.000000 678.000000 
-222.000000 -102.000000 678.000000 
-210.000000 -114.000000 678.000000 
-210.000000 -102.000000 678.000000 
-330.000000 -90.000000 678.000000 
-318.000000 -90.000000 678.000000 
-306.000000 -90.000000 678.000000 
-294.000000 -90.000000 678.000000 
-282.000000 -90.000000 678.000000 
-270.000000 -90.000000 678.000000 
-258.000000 -90.000000 678.000000 
-246.000000 -90.000000 678.000000 
-258.000000 -78.000000 678.000000 
-246.000000 -78.000000 678.000000 
-234.000000 -90.000000 678.000000 
-222.000000 -90.000000 678.000000 
-234.000000 -78.000000 678.000000 
-222.000000 -78.000000 678.000000 
-222.000000 -66.000000 678.000000 
-162.000000 -126.000000 594.000000 
-150.000000 -126.000000 594.000000 
-186.000000 -138.000000 618.000000 
-174.000000 -126.000000 606.000000 
-186.000000 -126.000000 618.000000 
-174.000000 -126.000000 618.000000 
-162.000000 -114.000000 594.000000 
-150.000000 -114.000000 594.000000 
-162.000000 -102.000000 594.000000 
-150.000000 -102.000000 594.000000 
-162.000000 -126.000000 606.000000 
-150.000000 -126.000000 606.000000 
-150.000000 -138.000000 618.000000 
-174.000000 -114.000000 606.000000 
-186.000000 -114.000000 618.000000 
-174.000000 -102.000000 606.000000 
-174.000000 -114.000000 618.000000 
-186.000000 -102.000000 618.000000 
-174.000000 -102.000000 618.000000 
-162.000000 -114.000000 606.000000 
-150.000000 -114.000000 606.000000 
-162.000000 -102.000000 606.000000 
-162.000000 -114.000000 618.000000 
-150.000000 -102.000000 606.000000 
-162.000000 -102.000000 618.000000 
-138.000000 -126.000000 594.000000 
-126.000000 -126.000000 594.000000 
-114.000000 -126.000000 594.000000 
-126.000000 -114.000000 582.000000 
-138.000000 -114.000000 594.000000 
-126.000000 -102.000000 582.000000 
-126.000000 -114.000000 594.000000 
-138.000000 -102.000000 594.000000 
-126.000000 -102.000000 594.000000 
-138.000000 -126.000000 606.000000 
-114.000000 -114.000000 582.000000 
-102.000000 -114.000000 582.000000 
-114.000000 -102.000000 582.000000 
-114.000000 -114.000000 594.000000 
-102.000000 -102.000000 582.000000 
-114.000000 -102.000000 594.000000 
-138.000000 -114.000000 606.000000 
-138.000000 -102.000000 606.000000 
-114.000000 -174.000000 642.000000 
-126.000000 -186.000000 654.000000 
-126.000000 -174.000000 654.000000 
-114.000000 -162.000000 630.000000 
-114.000000 -186.000000 654.000000 
-126.000000 -162.000000 654.000000 
-186.000000 -138.000000 630.000000 
-186.000000 -126.000000 630.000000 
-186.000000 -138.000000 642.000000 
-186.000000 -126.000000 642.000000 
-186.000000 -114.000000 630.000000 
-174.000000 -114.000000 630.000000 
-186.000000 -102.000000 630.000000 
-186.000000 -114.000000 642.000000 
-174.000000 -102.000000 630.000000 
-174.000000 -114.000000 642.000000 
-186.000000 -102.000000 642.000000 
-174.000000 -102.000000 642.000000 
-186.000000 -126.000000 654.000000 
-162.000000 -102.000000 630.000000 
-186.000000 -114.000000 654.000000 
-186.000000 -102.000000 654.000000 
-102.000000 -114.000000 642.000000 
-102.000000 -102.000000 642.000000 
-102.000000 -126.000000 654.000000 
-114.000000 -126.000000 666.000000 
-102.000000 -126.000000 666.000000 
-114.000000 -114.000000 654.000000 
-102.000000 -114.000000 654.000000 
-114.000000 -102.000000 654.000000 
-114.000000 -114.000000 666.000000 
-102.000000 -102.000000 654.000000 
-102.000000 -114.000000 666.000000 
-114.000000 -102.000000 666.000000 
-102.000000 -102.000000 666.000000 
-54.000000 -162.000000 618.000000 
-6.000000 -186.000000 618.000000 
-54.000000 -126.000000 594.000000 
-78.000000 -114.000000 582.000000 
-78.000000 -102.000000 582.000000 
-66.000000 -114.000000 582.000000 
-54.000000 -114.000000 582.000000 
-66.000000 -102.000000 582.000000 
-54.000000 -114.000000 594.000000 
-66.000000 -102.000000 594.000000 
-66.000000 -126.000000 606.000000 
-54.000000 -126.000000 606.000000 
-54.000000 -138.000000 618.000000 
-54.000000 -126.000000 618.000000 
-78.000000 -102.000000 606.000000 
-78.000000 -102.000000 618.000000 
-66.000000 -114.000000 606.000000 
-54.000000 -114.000000 606.000000 
-66.000000 -102.000000 606.000000 
-66.000000 -114.000000 618.000000 
-54.000000 -114.000000 618.000000 
-54.000000 -102.000000 618.000000 
-54.000000 -162.000000 630.000000 
-66.000000 -162.000000 642.000000 
-54.000000 -186.000000 654.000000 
-78.000000 -162.000000 654.000000 
-78.000000 -150.000000 654.000000 
-66.000000 -162.000000 654.000000 
-54.000000 -162.000000 654.000000 
-66.000000 -150.000000 654.000000 
-30.000000 -126.000000 594.000000 
-18.000000 -126.000000 594.000000 
-30.000000 -114.000000 582.000000 
-42.000000 -102.000000 582.000000 
-42.000000 -114.000000 594.000000 
-30.000000 -102.000000 582.000000 
-30.000000 -114.000000 594.000000 
-42.000000 -102.000000 594.000000 
-42.000000 -126.000000 606.000000 
-42.000000 -138.000000 618.000000 
-30.000000 -126.000000 606.000000 
-30.000000 -138.000000 618.000000 
-42.000000 -126.000000 618.000000 
-30.000000 -126.000000 618.000000 
-18.000000 -114.000000 582.000000 
-6.000000 -114.000000 582.000000 
-18.000000 -102.000000 582.000000 
-6.000000 -102.000000 582.000000 
-18.000000 -102.000000 594.000000 
-6.000000 -102.000000 594.000000 
-18.000000 -138.000000 618.000000 
-6.000000 -126.000000 606.000000 
-6.000000 -138.000000 618.000000 
-18.000000 -126.000000 618.000000 
-6.000000 -126.000000 618.000000 
-42.000000 -102.000000 606.000000 
-42.000000 -114.000000 618.000000 
-30.000000 -102.000000 606.000000 
-30.000000 -114.000000 618.000000 
-42.000000 -102.000000 618.000000 
-30.000000 -102.000000 618.000000 
-18.000000 -114.000000 606.000000 
-6.000000 -114.000000 606.000000 
-18.000000 -102.000000 606.000000 
-18.000000 -114.000000 618.000000 
-6.000000 -102.000000 606.000000 
-6.000000 -114.000000 618.000000 
-18.000000 -102.000000 618.000000 
-6.000000 -102.000000 618.000000 
-30.000000 -174.000000 642.000000 
-6.000000 -174.000000 630.000000 
-6.000000 -174.000000 642.000000 
-30.000000 -174.000000 666.000000 
-6.000000 -162.000000 630.000000 
-6.000000 -162.000000 642.000000 
-42.000000 -162.000000 654.000000 
-42.000000 -150.000000 654.000000 
-42.000000 -162.000000 666.000000 
-30.000000 -150.000000 654.000000 
-78.000000 -126.000000 630.000000 
-78.000000 -138.000000 642.000000 
-90.000000 -126.000000 642.000000 
-78.000000 -126.000000 642.000000 
-66.000000 -138.000000 630.000000 
-54.000000 -138.000000 630.000000 
-66.000000 -126.000000 630.000000 
-66.000000 -138.000000 642.000000 
-54.000000 -126.000000 630.000000 
-54.000000 -138.000000 642.000000 
-66.000000 -126.000000 642.000000 
-54.000000 -126.000000 642.000000 
-90.000000 -114.000000 630.000000 
-78.000000 -114.000000 630.000000 
-90.000000 -102.000000 630.000000 
-90.000000 -114.000000 642.000000 
-78.000000 -102.000000 630.000000 
-78.000000 -114.000000 642.000000 
-90.000000 -102.000000 642.000000 
-78.000000 -102.000000 642.000000 
-90.000000 -138.000000 654.000000 
-78.000000 -138.000000 654.000000 
-90.000000 -126.000000 654.000000 
-90.000000 -138.000000 666.000000 
-78.000000 -126.000000 654.000000 
-78.000000 -138.000000 666.000000 
-90.000000 -126.000000 666.000000 
-66.000000 -114.000000 630.000000 
-54.000000 -114.000000 630.000000 
-66.000000 -102.000000 630.000000 
-66.000000 -114.000000 642.000000 
-54.000000 -102.000000 630.000000 
-54.000000 -114.000000 642.000000 
-66.000000 -102.000000 642.000000 
-54.000000 -102.000000 642.000000 
-66.000000 -138.000000 654.000000 
-54.000000 -138.000000 654.000000 
-66.000000 -126.000000 654.000000 
-66.000000 -138.000000 666.000000 
-54.000000 -126.000000 654.000000 
-54.000000 -138.000000 666.000000 
-66.000000 -126.000000 666.000000 
-54.000000 -126.000000 666.000000 
-90.000000 -114.000000 654.000000 
-78.000000 -114.000000 654.000000 
-90.000000 -102.000000 654.000000 
-90.000000 -114.000000 666.000000 
-78.000000 -102.000000 654.000000 
-78.000000 -114.000000 666.000000 
-90.000000 -102.000000 666.000000 
-78.000000 -102.000000 666.000000 
-66.000000 -114.000000 654.000000 
-54.000000 -114.000000 654.000000 
-66.000000 -102.000000 654.000000 
-66.000000 -114.000000 666.000000 
-54.000000 -102.000000 654.000000 
-54.000000 -114.000000 666.000000 
-66.000000 -102.000000 666.000000 
-54.000000 -102.000000 666.000000 
-42.000000 -138.000000 630.000000 
-30.000000 -138.000000 630.000000 
-42.000000 -126.000000 630.000000 
-42.000000 -138.000000 642.000000 
-30.000000 -126.000000 630.000000 
-30.000000 -138.000000 642.000000 
-42.000000 -126.000000 642.000000 
-30.000000 -126.000000 642.000000 
-18.000000 -138.000000 630.000000 
-6.000000 -138.000000 630.000000 
-18.000000 -126.000000 630.000000 
-6.000000 -126.000000 630.000000 
-6.000000 -138.000000 642.000000 
-6.000000 -126.000000 642.000000 
-42.000000 -114.000000 630.000000 
-30.000000 -114.000000 630.000000 
-42.000000 -102.000000 630.000000 
-42.000000 -114.000000 642.000000 
-30.000000 -102.000000 630.000000 
-30.000000 -114.000000 642.000000 
-42.000000 -102.000000 642.000000 
-30.000000 -102.000000 642.000000 
-30.000000 -138.000000 654.000000 
-42.000000 -126.000000 654.000000 
-30.000000 -126.000000 654.000000 
-30.000000 -138.000000 666.000000 
-18.000000 -114.000000 630.000000 
-6.000000 -114.000000 630.000000 
-18.000000 -102.000000 630.000000 
-6.000000 -102.000000 630.000000 
-6.000000 -114.000000 642.000000 
-6.000000 -102.000000 642.000000 
-42.000000 -114.000000 654.000000 
-42.000000 -102.000000 654.000000 
-42.000000 -114.000000 666.000000 
-30.000000 -102.000000 654.000000 
-42.000000 -102.000000 666.000000 
-162.000000 -90.000000 594.000000 
-150.000000 -90.000000 594.000000 
-162.000000 -78.000000 594.000000 
-150.000000 -78.000000 594.000000 
-174.000000 -54.000000 594.000000 
-174.000000 -90.000000 606.000000 
-186.000000 -90.000000 618.000000 
-174.000000 -78.000000 606.000000 
-174.000000 -90.000000 618.000000 
-186.000000 -78.000000 618.000000 
-174.000000 -78.000000 618.000000 
-162.000000 -66.000000 594.000000 
-150.000000 -66.000000 594.000000 
-162.000000 -54.000000 594.000000 
-150.000000 -54.000000 594.000000 
-162.000000 -90.000000 606.000000 
-150.000000 -90.000000 606.000000 
-162.000000 -78.000000 606.000000 
-162.000000 -90.000000 618.000000 
-150.000000 -78.000000 606.000000 
-150.000000 -90.000000 618.000000 
-162.000000 -78.000000 618.000000 
-150.000000 -78.000000 618.000000 
-186.000000 -66.000000 606.000000 
-174.000000 -66.000000 606.000000 
-186.000000 -54.000000 606.000000 
-186.000000 -66.000000 618.000000 
-174.000000 -54.000000 606.000000 
-174.000000 -66.000000 618.000000 
-186.000000 -54.000000 618.000000 
-174.000000 -54.000000 618.000000 
-162.000000 -66.000000 606.000000 
-150.000000 -66.000000 606.000000 
-162.000000 -54.000000 606.000000 
-162.000000 -66.000000 618.000000 
-150.000000 -54.000000 606.000000 
-150.000000 -66.000000 618.000000 
-162.000000 -54.000000 618.000000 
-150.000000 -54.000000 618.000000 
-126.000000 -90.000000 582.000000 
-138.000000 -78.000000 582.000000 
-138.000000 -90.000000 594.000000 
-126.000000 -78.000000 582.000000 
-126.000000 -90.000000 594.000000 
-138.000000 -78.000000 594.000000 
-126.000000 -78.000000 594.000000 
-114.000000 -90.000000 582.000000 
-102.000000 -90.000000 582.000000 
-114.000000 -78.000000 582.000000 
-114.000000 -90.000000 594.000000 
-102.000000 -78.000000 582.000000 
-114.000000 -78.000000 594.000000 
-138.000000 -66.000000 582.000000 
-126.000000 -66.000000 582.000000 
-138.000000 -54.000000 582.000000 
-138.000000 -66.000000 594.000000 
-126.000000 -54.000000 582.000000 
-126.000000 -66.000000 594.000000 
-138.000000 -54.000000 594.000000 
-126.000000 -54.000000 594.000000 
-138.000000 -90.000000 606.000000 
-138.000000 -78.000000 606.000000 
-114.000000 -66.000000 582.000000 
-102.000000 -66.000000 582.000000 
-114.000000 -54.000000 582.000000 
-114.000000 -66.000000 594.000000 
-102.000000 -54.000000 582.000000 
-114.000000 -54.000000 594.000000 
-138.000000 -66.000000 606.000000 
-138.000000 -54.000000 606.000000 
-102.000000 -66.000000 618.000000 
-102.000000 -54.000000 618.000000 
-174.000000 -42.000000 594.000000 
-174.000000 -30.000000 594.000000 
-162.000000 -42.000000 594.000000 
-150.000000 -42.000000 594.000000 
-162.000000 -30.000000 594.000000 
-150.000000 -30.000000 594.000000 
-186.000000 -42.000000 606.000000 
-174.000000 -42.000000 606.000000 
-186.000000 -42.000000 618.000000 
-174.000000 -42.000000 618.000000 
-162.000000 -42.000000 606.000000 
-150.000000 -42.000000 606.000000 
-186.000000 -90.000000 630.000000 
-174.000000 -90.000000 630.000000 
-186.000000 -78.000000 630.000000 
-186.000000 -90.000000 642.000000 
-174.000000 -78.000000 630.000000 
-174.000000 -90.000000 642.000000 
-186.000000 -78.000000 642.000000 
-174.000000 -78.000000 642.000000 
-162.000000 -90.000000 630.000000 
-162.000000 -78.000000 630.000000 
-186.000000 -66.000000 630.000000 
-174.000000 -66.000000 630.000000 
-186.000000 -54.000000 630.000000 
-186.000000 -66.000000 642.000000 
-174.000000 -54.000000 630.000000 
-174.000000 -66.000000 642.000000 
-186.000000 -54.000000 642.000000 
-174.000000 -54.000000 642.000000 
-186.000000 -90.000000 654.000000 
-186.000000 -78.000000 654.000000 
-162.000000 -66.000000 630.000000 
-162.000000 -54.000000 630.000000 
-186.000000 -66.000000 654.000000 
-186.000000 -54.000000 654.000000 
-126.000000 -42.000000 582.000000 
-138.000000 -42.000000 594.000000 
-126.000000 -30.000000 582.000000 
-126.000000 -42.000000 594.000000 
-138.000000 -30.000000 594.000000 
-126.000000 -30.000000 594.000000 
-114.000000 -42.000000 582.000000 
-102.000000 -42.000000 582.000000 
-114.000000 -30.000000 582.000000 
-114.000000 -42.000000 594.000000 
-102.000000 -30.000000 582.000000 
-114.000000 -30.000000 594.000000 
-126.000000 -18.000000 582.000000 
-114.000000 -18.000000 582.000000 
-114.000000 -18.000000 594.000000 
-102.000000 -90.000000 630.000000 
-114.000000 -90.000000 642.000000 
-102.000000 -78.000000 630.000000 
-102.000000 -90.000000 642.000000 
-114.000000 -78.000000 642.000000 
-102.000000 -78.000000 642.000000 
-102.000000 -66.000000 630.000000 
-102.000000 -54.000000 630.000000 
-102.000000 -66.000000 642.000000 
-114.000000 -90.000000 654.000000 
-102.000000 -90.000000 654.000000 
-114.000000 -90.000000 666.000000 
-102.000000 -78.000000 654.000000 
-102.000000 -90.000000 666.000000 
-102.000000 -78.000000 666.000000 
-102.000000 -66.000000 654.000000 
-102.000000 -150.000000 690.000000 
-126.000000 -150.000000 714.000000 
-114.000000 -162.000000 714.000000 
-102.000000 -150.000000 702.000000 
-114.000000 -150.000000 714.000000 
-102.000000 -150.000000 714.000000 
-126.000000 -126.000000 678.000000 
-126.000000 -126.000000 690.000000 
-114.000000 -126.000000 678.000000 
-102.000000 -126.000000 678.000000 
-114.000000 -126.000000 690.000000 
-102.000000 -126.000000 690.000000 
-126.000000 -138.000000 702.000000 
-126.000000 -126.000000 702.000000 
-126.000000 -138.000000 714.000000 
-126.000000 -126.000000 714.000000 
-114.000000 -114.000000 678.000000 
-102.000000 -114.000000 678.000000 
-114.000000 -102.000000 678.000000 
-114.000000 -114.000000 690.000000 
-102.000000 -102.000000 678.000000 
-102.000000 -114.000000 690.000000 
-102.000000 -102.000000 690.000000 
-114.000000 -138.000000 702.000000 
-102.000000 -138.000000 702.000000 
-114.000000 -126.000000 702.000000 
-114.000000 -138.000000 714.000000 
-102.000000 -126.000000 702.000000 
-102.000000 -138.000000 714.000000 
-114.000000 -126.000000 714.000000 
-102.000000 -126.000000 714.000000 
-114.000000 -114.000000 702.000000 
-102.000000 -114.000000 702.000000 
-114.000000 -114.000000 714.000000 
-102.000000 -102.000000 702.000000 
-102.000000 -114.000000 714.000000 
-126.000000 -174.000000 726.000000 
-126.000000 -186.000000 738.000000 
-126.000000 -174.000000 738.000000 
-114.000000 -174.000000 726.000000 
-114.000000 -186.000000 738.000000 
-102.000000 -174.000000 726.000000 
-102.000000 -186.000000 738.000000 
-114.000000 -174.000000 738.000000 
-102.000000 -174.000000 738.000000 
-126.000000 -162.000000 726.000000 
-126.000000 -150.000000 726.000000 
-126.000000 -162.000000 738.000000 
-126.000000 -150.000000 738.000000 
-126.000000 -186.000000 750.000000 
-114.000000 -162.000000 726.000000 
-102.000000 -162.000000 726.000000 
-114.000000 -150.000000 726.000000 
-114.000000 -162.000000 738.000000 
-102.000000 -150.000000 726.000000 
-102.000000 -162.000000 738.000000 
-114.000000 -150.000000 738.000000 
-102.000000 -150.000000 738.000000 
-126.000000 -138.000000 726.000000 
-114.000000 -138.000000 726.000000 
-102.000000 -138.000000 726.000000 
-78.000000 -90.000000 582.000000 
-78.000000 -78.000000 582.000000 
-78.000000 -78.000000 594.000000 
-66.000000 -90.000000 582.000000 
-54.000000 -78.000000 582.000000 
-54.000000 -90.000000 594.000000 
-66.000000 -78.000000 594.000000 
-54.000000 -78.000000 594.000000 
-78.000000 -66.000000 594.000000 
-90.000000 -54.000000 594.000000 
-78.000000 -54.000000 594.000000 
-78.000000 -90.000000 618.000000 
-90.000000 -78.000000 618.000000 
-78.000000 -78.000000 618.000000 
-66.000000 -66.000000 582.000000 
-54.000000 -66.000000 582.000000 
-66.000000 -54.000000 582.000000 
-66.000000 -66.000000 594.000000 
-54.000000 -54.000000 582.000000 
-54.000000 -66.000000 594.000000 
-66.000000 -54.000000 594.000000 
-54.000000 -54.000000 594.000000 
-54.000000 -90.000000 606.000000 
-66.000000 -78.000000 606.000000 
-66.000000 -90.000000 618.000000 
-54.000000 -78.000000 606.000000 
-54.000000 -90.000000 618.000000 
-66.000000 -78.000000 618.000000 
-54.000000 -78.000000 618.000000 
-90.000000 -66.000000 606.000000 
-78.000000 -66.000000 606.000000 
-90.000000 -54.000000 606.000000 
-90.000000 -66.000000 618.000000 
-78.000000 -54.000000 606.000000 
-78.000000 -66.000000 618.000000 
-90.000000 -54.000000 618.000000 
-78.000000 -54.000000 618.000000 
-66.000000 -66.000000 606.000000 
-54.000000 -66.000000 606.000000 
-66.000000 -54.000000 606.000000 
-66.000000 -66.000000 618.000000 
-54.000000 -54.000000 606.000000 
-54.000000 -66.000000 618.000000 
-66.000000 -54.000000 618.000000 
-42.000000 -90.000000 582.000000 
-30.000000 -90.000000 582.000000 
-42.000000 -78.000000 582.000000 
-30.000000 -78.000000 582.000000 
-30.000000 -90.000000 594.000000 
-42.000000 -78.000000 594.000000 
-30.000000 -78.000000 594.000000 
-18.000000 -90.000000 582.000000 
-6.000000 -90.000000 582.000000 
-18.000000 -78.000000 582.000000 
-18.000000 -90.000000 594.000000 
-6.000000 -78.000000 582.000000 
-6.000000 -90.000000 594.000000 
-18.000000 -78.000000 594.000000 
-6.000000 -78.000000 594.000000 
-42.000000 -66.000000 582.000000 
-30.000000 -66.000000 582.000000 
-42.000000 -54.000000 582.000000 
-42.000000 -66.000000 594.000000 
-30.000000 -54.000000 582.000000 
-30.000000 -66.000000 594.000000 
-42.000000 -54.000000 594.000000 
-30.000000 -54.000000 594.000000 
-42.000000 -90.000000 606.000000 
-30.000000 -90.000000 606.000000 
-42.000000 -78.000000 606.000000 
-42.000000 -90.000000 618.000000 
-30.000000 -78.000000 606.000000 
-30.000000 -90.000000 618.000000 
-42.000000 -78.000000 618.000000 
-30.000000 -78.000000 618.000000 
-18.000000 -66.000000 582.000000 
-6.000000 -66.000000 582.000000 
-18.000000 -54.000000 582.000000 
-18.000000 -66.000000 594.000000 
-6.000000 -54.000000 582.000000 
-6.000000 -66.000000 594.000000 
-18.000000 -54.000000 594.000000 
-6.000000 -54.000000 594.000000 
-18.000000 -90.000000 606.000000 
-6.000000 -90.000000 606.000000 
-18.000000 -78.000000 606.000000 
-18.000000 -90.000000 618.000000 
-18.000000 -78.000000 618.000000 
-6.000000 -78.000000 618.000000 
-42.000000 -66.000000 606.000000 
-42.000000 -54.000000 606.000000 
-42.000000 -66.000000 618.000000 
-30.000000 -54.000000 606.000000 
-42.000000 -54.000000 618.000000 
-30.000000 -54.000000 618.000000 
-18.000000 -66.000000 606.000000 
-6.000000 -66.000000 606.000000 
-18.000000 -54.000000 606.000000 
-6.000000 -54.000000 606.000000 
-6.000000 -66.000000 618.000000 
-18.000000 -54.000000 618.000000 
-6.000000 -54.000000 618.000000 
-78.000000 -42.000000 582.000000 
-90.000000 -42.000000 594.000000 
-78.000000 -30.000000 582.000000 
-78.000000 -42.000000 594.000000 
-90.000000 -30.000000 594.000000 
-78.000000 -30.000000 594.000000 
-66.000000 -42.000000 582.000000 
-54.000000 -42.000000 582.000000 
-66.000000 -30.000000 582.000000 
-66.000000 -42.000000 594.000000 
-54.000000 -30.000000 582.000000 
-54.000000 -42.000000 594.000000 
-66.000000 -30.000000 594.000000 
-54.000000 -30.000000 594.000000 
-78.000000 -18.000000 582.000000 
-90.000000 -18.000000 594.000000 
-78.000000 -18.000000 594.000000 
-90.000000 -42.000000 606.000000 
-78.000000 -42.000000 606.000000 
-90.000000 -42.000000 618.000000 
-78.000000 -30.000000 606.000000 
-78.000000 -42.000000 618.000000 
-66.000000 -18.000000 582.000000 
-54.000000 -18.000000 582.000000 
-66.000000 -18.000000 594.000000 
-54.000000 -18.000000 594.000000 
-54.000000 -42.000000 606.000000 
-66.000000 -30.000000 606.000000 
-66.000000 -42.000000 618.000000 
-54.000000 -30.000000 606.000000 
-54.000000 -42.000000 618.000000 
-90.000000 -90.000000 630.000000 
-78.000000 -90.000000 630.000000 
-90.000000 -78.000000 630.000000 
-90.000000 -90.000000 642.000000 
-78.000000 -78.000000 630.000000 
-78.000000 -90.000000 642.000000 
-90.000000 -78.000000 642.000000 
-78.000000 -78.000000 642.000000 
-66.000000 -90.000000 630.000000 
-54.000000 -90.000000 630.000000 
-66.000000 -78.000000 630.000000 
-66.000000 -90.000000 642.000000 
-54.000000 -78.000000 630.000000 
-54.000000 -90.000000 642.000000 
-66.000000 -78.000000 642.000000 
-54.000000 -78.000000 642.000000 
-90.000000 -66.000000 630.000000 
-78.000000 -66.000000 630.000000 
-90.000000 -54.000000 630.000000 
-90.000000 -66.000000 642.000000 
-78.000000 -54.000000 630.000000 
-78.000000 -66.000000 642.000000 
-90.000000 -54.000000 642.000000 
-78.000000 -54.000000 642.000000 
-90.000000 -90.000000 654.000000 
-78.000000 -90.000000 654.000000 
-90.000000 -78.000000 654.000000 
-90.000000 -90.000000 666.000000 
-78.000000 -78.000000 654.000000 
-78.000000 -90.000000 666.000000 
-90.000000 -78.000000 666.000000 
-78.000000 -78.000000 666.000000 
-66.000000 -66.000000 630.000000 
-54.000000 -66.000000 630.000000 
-66.000000 -54.000000 630.000000 
-66.000000 -66.000000 642.000000 
-54.000000 -54.000000 630.000000 
-54.000000 -66.000000 642.000000 
-54.000000 -54.000000 642.000000 
-66.000000 -90.000000 654.000000 
-54.000000 -90.000000 654.000000 
-66.000000 -78.000000 654.000000 
-66.000000 -90.000000 666.000000 
-54.000000 -78.000000 654.000000 
-54.000000 -90.000000 666.000000 
-66.000000 -78.000000 666.000000 
-54.000000 -78.000000 666.000000 
-90.000000 -66.000000 654.000000 
-78.000000 -66.000000 654.000000 
-90.000000 -54.000000 654.000000 
-78.000000 -54.000000 654.000000 
-66.000000 -66.000000 654.000000 
-54.000000 -66.000000 654.000000 
-66.000000 -54.000000 654.000000 
-54.000000 -54.000000 654.000000 
-42.000000 -42.000000 582.000000 
-30.000000 -42.000000 582.000000 
-42.000000 -30.000000 582.000000 
-42.000000 -42.000000 594.000000 
-30.000000 -30.000000 582.000000 
-30.000000 -42.000000 594.000000 
-42.000000 -30.000000 594.000000 
-30.000000 -30.000000 594.000000 
-18.000000 -42.000000 582.000000 
-6.000000 -42.000000 582.000000 
-18.000000 -30.000000 582.000000 
-18.000000 -42.000000 594.000000 
-6.000000 -30.000000 582.000000 
-6.000000 -42.000000 594.000000 
-18.000000 -30.000000 594.000000 
-6.000000 -30.000000 594.000000 
-42.000000 -18.000000 582.000000 
-30.000000 -18.000000 582.000000 
-42.000000 -18.000000 594.000000 
-30.000000 -18.000000 594.000000 
-42.000000 -42.000000 606.000000 
-42.000000 -30.000000 606.000000 
-42.000000 -42.000000 618.000000 
-30.000000 -30.000000 606.000000 
-30.000000 -42.000000 618.000000 
-42.000000 -30.000000 618.000000 
-30.000000 -30.000000 618.000000 
-18.000000 -18.000000 582.000000 
-6.000000 -18.000000 582.000000 
-6.000000 -6.000000 582.000000 
-18.000000 -42.000000 606.000000 
-6.000000 -42.000000 606.000000 
-18.000000 -30.000000 606.000000 
-18.000000 -42.000000 618.000000 
-6.000000 -30.000000 606.000000 
-6.000000 -42.000000 618.000000 
-18.000000 -30.000000 618.000000 
-42.000000 -90.000000 630.000000 
-30.000000 -90.000000 630.000000 
-42.000000 -78.000000 630.000000 
-42.000000 -90.000000 642.000000 
-30.000000 -78.000000 630.000000 
-30.000000 -90.000000 642.000000 
-42.000000 -78.000000 642.000000 
-30.000000 -78.000000 642.000000 
-18.000000 -90.000000 630.000000 
-6.000000 -78.000000 630.000000 
-6.000000 -90.000000 642.000000 
-6.000000 -78.000000 642.000000 
-42.000000 -66.000000 630.000000 
-30.000000 -66.000000 630.000000 
-42.000000 -54.000000 630.000000 
-30.000000 -66.000000 642.000000 
-42.000000 -54.000000 642.000000 
-30.000000 -54.000000 642.000000 
-42.000000 -90.000000 654.000000 
-30.000000 -90.000000 654.000000 
-42.000000 -78.000000 654.000000 
-42.000000 -90.000000 666.000000 
-30.000000 -78.000000 654.000000 
-30.000000 -90.000000 666.000000 
-42.000000 -78.000000 666.000000 
-30.000000 -78.000000 666.000000 
-6.000000 -66.000000 630.000000 
-18.000000 -54.000000 630.000000 
-6.000000 -54.000000 630.000000 
-6.000000 -66.000000 642.000000 
-6.000000 -54.000000 642.000000 
-42.000000 -66.000000 654.000000 
-30.000000 -66.000000 654.000000 
-42.000000 -54.000000 654.000000 
-30.000000 -54.000000 654.000000 
-90.000000 -42.000000 630.000000 
-66.000000 -42.000000 630.000000 
-54.000000 -42.000000 630.000000 
-42.000000 -42.000000 630.000000 
-30.000000 -42.000000 630.000000 
-18.000000 -42.000000 630.000000 
-6.000000 -42.000000 630.000000 
-66.000000 -162.000000 678.000000 
-90.000000 -150.000000 702.000000 
-90.000000 -150.000000 714.000000 
-78.000000 -150.000000 714.000000 
-42.000000 -174.000000 678.000000 
-90.000000 -126.000000 678.000000 
-78.000000 -126.000000 678.000000 
-90.000000 -126.000000 690.000000 
-78.000000 -126.000000 690.000000 
-54.000000 -126.000000 678.000000 
-66.000000 -126.000000 690.000000 
-90.000000 -114.000000 678.000000 
-78.000000 -114.000000 678.000000 
-90.000000 -102.000000 678.000000 
-90.000000 -114.000000 690.000000 
-78.000000 -102.000000 678.000000 
-78.000000 -114.000000 690.000000 
-90.000000 -102.000000 690.000000 
-78.000000 -102.000000 690.000000 
-90.000000 -138.000000 702.000000 
-78.000000 -138.000000 702.000000 
-90.000000 -126.000000 702.000000 
-90.000000 -138.000000 714.000000 
-78.000000 -126.000000 702.000000 
-78.000000 -138.000000 714.000000 
-90.000000 -126.000000 714.000000 
-78.000000 -126.000000 714.000000 
-66.000000 -114.000000 678.000000 
-54.000000 -114.000000 678.000000 
-66.000000 -102.000000 678.000000 
-66.000000 -114.000000 690.000000 
-54.000000 -102.000000 678.000000 
-54.000000 -114.000000 690.000000 
-66.000000 -102.000000 690.000000 
-54.000000 -102.000000 690.000000 
-66.000000 -138.000000 702.000000 
-66.000000 -126.000000 702.000000 
-66.000000 -138.000000 714.000000 
-54.000000 -126.000000 702.000000 
-54.000000 -138.000000 714.000000 
-66.000000 -126.000000 714.000000 
-54.000000 -126.000000 714.000000 
-90.000000 -114.000000 702.000000 
-78.000000 -114.000000 702.000000 
-90.000000 -102.000000 702.000000 
-90.000000 -114.000000 714.000000 
-78.000000 -102.000000 702.000000 
-78.000000 -114.000000 714.000000 
-66.000000 -114.000000 702.000000 
-54.000000 -114.000000 702.000000 
-66.000000 -102.000000 702.000000 
-66.000000 -114.000000 714.000000 
-78.000000 -186.000000 726.000000 
-90.000000 -174.000000 726.000000 
-90.000000 -186.000000 738.000000 
-78.000000 -174.000000 726.000000 
-78.000000 -186.000000 738.000000 
-90.000000 -174.000000 738.000000 
-78.000000 -174.000000 738.000000 
-66.000000 -174.000000 726.000000 
-66.000000 -174.000000 738.000000 
-90.000000 -162.000000 726.000000 
-78.000000 -162.000000 726.000000 
-90.000000 -150.000000 726.000000 
-90.000000 -162.000000 738.000000 
-78.000000 -150.000000 726.000000 
-78.000000 -162.000000 738.000000 
-90.000000 -150.000000 738.000000 
-66.000000 -162.000000 726.000000 
-66.000000 -150.000000 726.000000 
-66.000000 -162.000000 738.000000 
-54.000000 -150.000000 726.000000 
-42.000000 -126.000000 678.000000 
-42.000000 -102.000000 678.000000 
-42.000000 -114.000000 690.000000 
-42.000000 -102.000000 690.000000 
-42.000000 -114.000000 702.000000 
-90.000000 -138.000000 726.000000 
-78.000000 -138.000000 726.000000 
-66.000000 -138.000000 726.000000 
-54.000000 -138.000000 726.000000 
-102.000000 -90.000000 678.000000 
-90.000000 -90.000000 678.000000 
-78.000000 -90.000000 678.000000 
-90.000000 -90.000000 690.000000 
-66.000000 -90.000000 678.000000 
-54.000000 -90.000000 678.000000 
-42.000000 -90.000000 678.000000 
6.000000 6.000000 -438.000000 
18.000000 6.000000 -438.000000 
6.000000 6.000000 -426.000000 
18.000000 6.000000 -426.000000 
6.000000 6.000000 -414.000000 
18.000000 6.000000 -414.000000 
6.000000 6.000000 -402.000000 
18.000000 6.000000 -402.000000 
6.000000 6.000000 -390.000000 
18.000000 6.000000 -390.000000 
6.000000 6.000000 -378.000000 
18.000000 6.000000 -378.000000 
6.000000 6.000000 -366.000000 
18.000000 6.000000 -366.000000 
6.000000 6.000000 -354.000000 
18.000000 6.000000 -354.000000 
6.000000 6.000000 -342.000000 
18.000000 6.000000 -342.000000 
6.000000 6.000000 -330.000000 
18.000000 6.000000 -330.000000 
6.000000 6.000000 -318.000000 
18.000000 6.000000 -318.000000 
6.000000 6.000000 -306.000000 
18.000000 6.000000 -306.000000 
6.000000 18.000000 -306.000000 
6.000000 6.000000 -234.000000 
18.000000 6.000000 -234.000000 
6.000000 6.000000 -222.000000 
18.000000 6.000000 -222.000000 
30.000000 6.000000 -234.000000 
30.000000 6.000000 -222.000000 
42.000000 6.000000 -222.000000 
6.000000 6.000000 -210.000000 
18.000000 6.000000 -210.000000 
6.000000 6.000000 -198.000000 
18.000000 6.000000 -198.000000 
30.000000 6.000000 -210.000000 
42.000000 6.000000 -210.000000 
42.000000 6.000000 -198.000000 
42.000000 18.000000 -198.000000 
54.000000 6.000000 -210.000000 
54.000000 6.000000 -198.000000 
66.000000 6.000000 -198.000000 
54.000000 18.000000 -198.000000 
66.000000 18.000000 -198.000000 
378.000000 162.000000 -210.000000 
378.000000 150.000000 -198.000000 
366.000000 162.000000 -198.000000 
378.000000 162.000000 -198.000000 
378.000000 174.000000 -210.000000 
366.000000 174.000000 -198.000000 
378.000000 174.000000 -198.000000 
6.000000 6.000000 -186.000000 
6.000000 6.000000 -174.000000 
42.000000 6.000000 -186.000000 
42.000000 18.000000 -186.000000 
6.000000 6.000000 -162.000000 
54.000000 6.000000 -186.000000 
66.000000 6.000000 -186.000000 
54.000000 18.000000 -186.000000 
66.000000 18.000000 -186.000000 
66.000000 6.000000 -174.000000 
66.000000 18.000000 -174.000000 
78.000000 6.000000 -186.000000 
78.000000 18.000000 -186.000000 
78.000000 6.000000 -174.000000 
90.000000 6.000000 -174.000000 
78.000000 18.000000 -174.000000 
90.000000 18.000000 -174.000000 
66.000000 30.000000 -174.000000 
78.000000 30.000000 -174.000000 
90.000000 30.000000 -174.000000 
78.000000 6.000000 -162.000000 
90.000000 6.000000 -162.000000 
78.000000 18.000000 -162.000000 
90.000000 18.000000 -162.000000 
90.000000 6.000000 -150.000000 
90.000000 18.000000 -150.000000 
78.000000 30.000000 -162.000000 
90.000000 30.000000 -162.000000 
90.000000 30.000000 -150.000000 
90.000000 42.000000 -150.000000 
102.000000 6.000000 -162.000000 
102.000000 18.000000 -162.000000 
102.000000 6.000000 -150.000000 
114.000000 6.000000 -150.000000 
102.000000 18.000000 -150.000000 
114.000000 18.000000 -150.000000 
126.000000 18.000000 -150.000000 
102.000000 30.000000 -162.000000 
114.000000 30.000000 -162.000000 
102.000000 30.000000 -150.000000 
114.000000 30.000000 -150.000000 
102.000000 42.000000 -150.000000 
114.000000 42.000000 -150.000000 
126.000000 30.000000 -150.000000 
126.000000 42.000000 -150.000000 
114.000000 18.000000 -138.000000 
126.000000 18.000000 -138.000000 
138.000000 18.000000 -138.000000 
102.000000 30.000000 -138.000000 
114.000000 30.000000 -138.000000 
102.000000 42.000000 -138.000000 
114.000000 42.000000 -138.000000 
126.000000 30.000000 -138.000000 
138.000000 30.000000 -138.000000 
126.000000 42.000000 -138.000000 
138.000000 42.000000 -138.000000 
138.000000 30.000000 -126.000000 
138.000000 42.000000 -126.000000 
150.000000 30.000000 -138.000000 
150.000000 42.000000 -138.000000 
150.000000 30.000000 -126.000000 
162.000000 30.000000 -126.000000 
150.000000 42.000000 -126.000000 
162.000000 42.000000 -126.000000 
174.000000 30.000000 -126.000000 
174.000000 42.000000 -126.000000 
186.000000 42.000000 -126.000000 
162.000000 42.000000 -114.000000 
174.000000 42.000000 -114.000000 
186.000000 42.000000 -114.000000 
102.000000 54.000000 -138.000000 
114.000000 54.000000 -138.000000 
114.000000 66.000000 -138.000000 
126.000000 54.000000 -138.000000 
138.000000 54.000000 -138.000000 
126.000000 66.000000 -138.000000 
138.000000 66.000000 -138.000000 
138.000000 54.000000 -126.000000 
138.000000 66.000000 -126.000000 
150.000000 54.000000 -138.000000 
150.000000 66.000000 -138.000000 
150.000000 54.000000 -126.000000 
162.000000 54.000000 -126.000000 
150.000000 66.000000 -126.000000 
162.000000 66.000000 -126.000000 
174.000000 54.000000 -126.000000 
186.000000 54.000000 -126.000000 
174.000000 66.000000 -126.000000 
186.000000 66.000000 -126.000000 
150.000000 78.000000 -126.000000 
162.000000 54.000000 -114.000000 
162.000000 66.000000 -114.000000 
174.000000 54.000000 -114.000000 
186.000000 54.000000 -114.000000 
174.000000 66.000000 -114.000000 
186.000000 66.000000 -114.000000 
162.000000 78.000000 -114.000000 
162.000000 90.000000 -114.000000 
174.000000 78.000000 -114.000000 
186.000000 78.000000 -114.000000 
174.000000 90.000000 -114.000000 
186.000000 90.000000 -114.000000 
174.000000 102.000000 -114.000000 
186.000000 102.000000 -114.000000 
198.000000 42.000000 -114.000000 
210.000000 42.000000 -114.000000 
198.000000 66.000000 -126.000000 
198.000000 54.000000 -114.000000 
210.000000 54.000000 -114.000000 
198.000000 66.000000 -114.000000 
210.000000 66.000000 -114.000000 
198.000000 66.000000 -102.000000 
210.000000 66.000000 -102.000000 
222.000000 54.000000 -114.000000 
234.000000 54.000000 -114.000000 
222.000000 66.000000 -114.000000 
234.000000 66.000000 -114.000000 
222.000000 66.000000 -102.000000 
234.000000 66.000000 -102.000000 
198.000000 78.000000 -114.000000 
210.000000 78.000000 -114.000000 
198.000000 90.000000 -114.000000 
198.000000 78.000000 -102.000000 
210.000000 90.000000 -114.000000 
210.000000 78.000000 -102.000000 
198.000000 90.000000 -102.000000 
210.000000 90.000000 -102.000000 
222.000000 78.000000 -114.000000 
234.000000 78.000000 -114.000000 
222.000000 90.000000 -114.000000 
222.000000 78.000000 -102.000000 
234.000000 90.000000 -114.000000 
234.000000 78.000000 -102.000000 
222.000000 90.000000 -102.000000 
234.000000 90.000000 -102.000000 
246.000000 66.000000 -114.000000 
258.000000 66.000000 -114.000000 
246.000000 66.000000 -102.000000 
246.000000 78.000000 -114.000000 
258.000000 78.000000 -114.000000 
246.000000 90.000000 -114.000000 
246.000000 78.000000 -102.000000 
258.000000 90.000000 -114.000000 
258.000000 78.000000 -102.000000 
246.000000 90.000000 -102.000000 
258.000000 90.000000 -102.000000 
270.000000 78.000000 -114.000000 
270.000000 90.000000 -114.000000 
282.000000 90.000000 -114.000000 
294.000000 90.000000 -114.000000 
198.000000 102.000000 -114.000000 
210.000000 102.000000 -114.000000 
198.000000 114.000000 -114.000000 
198.000000 102.000000 -102.000000 
210.000000 114.000000 -114.000000 
210.000000 102.000000 -102.000000 
210.000000 114.000000 -102.000000 
222.000000 102.000000 -114.000000 
234.000000 102.000000 -114.000000 
222.000000 114.000000 -114.000000 
222.000000 102.000000 -102.000000 
234.000000 114.000000 -114.000000 
234.000000 102.000000 -102.000000 
222.000000 114.000000 -102.000000 
234.000000 114.000000 -102.000000 
222.000000 126.000000 -114.000000 
234.000000 126.000000 -114.000000 
246.000000 102.000000 -114.000000 
258.000000 102.000000 -114.000000 
246.000000 114.000000 -114.000000 
246.000000 102.000000 -102.000000 
258.000000 114.000000 -114.000000 
258.000000 102.000000 -102.000000 
246.000000 114.000000 -102.000000 
258.000000 114.000000 -102.000000 
282.000000 126.000000 -126.000000 
282.000000 138.000000 -126.000000 
270.000000 102.000000 -114.000000 
282.000000 102.000000 -114.000000 
270.000000 114.000000 -114.000000 
282.000000 114.000000 -114.000000 
246.000000 126.000000 -114.000000 
258.000000 126.000000 -114.000000 
270.000000 126.000000 -114.000000 
282.000000 126.000000 -114.000000 
366.000000 138.000000 -174.000000 
378.000000 138.000000 -174.000000 
354.000000 126.000000 -162.000000 
342.000000 126.000000 -150.000000 
354.000000 138.000000 -162.000000 
354.000000 126.000000 -150.000000 
342.000000 138.000000 -150.000000 
354.000000 138.000000 -150.000000 
366.000000 138.000000 -162.000000 
378.000000 138.000000 -162.000000 
294.000000 114.000000 -126.000000 
306.000000 114.000000 -126.000000 
318.000000 114.000000 -126.000000 
330.000000 114.000000 -126.000000 
294.000000 126.000000 -126.000000 
306.000000 126.000000 -126.000000 
294.000000 138.000000 -126.000000 
306.000000 138.000000 -126.000000 
294.000000 102.000000 -114.000000 
306.000000 102.000000 -114.000000 
294.000000 114.000000 -114.000000 
306.000000 114.000000 -114.000000 
318.000000 126.000000 -138.000000 
330.000000 126.000000 -138.000000 
318.000000 138.000000 -138.000000 
318.000000 126.000000 -126.000000 
330.000000 138.000000 -138.000000 
330.000000 126.000000 -126.000000 
318.000000 138.000000 -126.000000 
330.000000 138.000000 -126.000000 
318.000000 102.000000 -114.000000 
318.000000 114.000000 -114.000000 
330.000000 114.000000 -114.000000 
294.000000 126.000000 -114.000000 
306.000000 126.000000 -114.000000 
318.000000 126.000000 -114.000000 
354.000000 150.000000 -174.000000 
354.000000 162.000000 -174.000000 
378.000000 150.000000 -186.000000 
366.000000 162.000000 -186.000000 
366.000000 150.000000 -174.000000 
378.000000 162.000000 -186.000000 
378.000000 150.000000 -174.000000 
366.000000 162.000000 -174.000000 
378.000000 162.000000 -174.000000 
354.000000 150.000000 -162.000000 
342.000000 150.000000 -150.000000 
354.000000 162.000000 -162.000000 
354.000000 150.000000 -150.000000 
342.000000 162.000000 -150.000000 
354.000000 162.000000 -150.000000 
366.000000 150.000000 -162.000000 
378.000000 150.000000 -162.000000 
366.000000 162.000000 -162.000000 
342.000000 114.000000 -138.000000 
342.000000 114.000000 -126.000000 
342.000000 126.000000 -138.000000 
342.000000 138.000000 -138.000000 
342.000000 126.000000 -126.000000 
342.000000 138.000000 -126.000000 
294.000000 150.000000 -126.000000 
306.000000 150.000000 -126.000000 
330.000000 150.000000 -138.000000 
318.000000 150.000000 -126.000000 
330.000000 150.000000 -126.000000 
342.000000 150.000000 -138.000000 
342.000000 150.000000 -126.000000 
402.000000 186.000000 -306.000000 
402.000000 186.000000 -294.000000 
414.000000 186.000000 -306.000000 
414.000000 186.000000 -294.000000 
402.000000 186.000000 -282.000000 
402.000000 174.000000 -270.000000 
402.000000 186.000000 -270.000000 
402.000000 162.000000 -246.000000 
414.000000 174.000000 -282.000000 
414.000000 186.000000 -282.000000 
414.000000 174.000000 -270.000000 
414.000000 186.000000 -270.000000 
390.000000 174.000000 -258.000000 
402.000000 174.000000 -258.000000 
390.000000 174.000000 -246.000000 
402.000000 186.000000 -258.000000 
402.000000 174.000000 -246.000000 
402.000000 186.000000 -246.000000 
390.000000 162.000000 -234.000000 
402.000000 162.000000 -234.000000 
390.000000 162.000000 -222.000000 
390.000000 174.000000 -234.000000 
402.000000 174.000000 -234.000000 
390.000000 174.000000 -222.000000 
402.000000 186.000000 -234.000000 
402.000000 174.000000 -222.000000 
390.000000 150.000000 -210.000000 
390.000000 162.000000 -210.000000 
390.000000 150.000000 -198.000000 
390.000000 162.000000 -198.000000 
390.000000 174.000000 -210.000000 
390.000000 174.000000 -198.000000 
390.000000 150.000000 -186.000000 
390.000000 162.000000 -186.000000 
6.000000 -30.000000 6.000000 
18.000000 -30.000000 6.000000 
18.000000 -42.000000 18.000000 
6.000000 -30.000000 18.000000 
18.000000 -30.000000 18.000000 
30.000000 -42.000000 18.000000 
30.000000 -30.000000 18.000000 
6.000000 -18.000000 6.000000 
18.000000 -18.000000 6.000000 
6.000000 -6.000000 6.000000 
6.000000 -18.000000 18.000000 
18.000000 -18.000000 18.000000 
6.000000 -6.000000 18.000000 
18.000000 -6.000000 18.000000 
18.000000 -42.000000 30.000000 
6.000000 -30.000000 30.000000 
18.000000 -30.000000 30.000000 
18.000000 -42.000000 42.000000 
6.000000 -30.000000 42.000000 
18.000000 -30.000000 42.000000 
30.000000 -18.000000 6.000000 
30.000000 -18.000000 18.000000 
30.000000 -6.000000 18.000000 
30.000000 -42.000000 30.000000 
30.000000 -30.000000 30.000000 
30.000000 -42.000000 42.000000 
30.000000 -30.000000 42.000000 
6.000000 -18.000000 30.000000 
18.000000 -18.000000 30.000000 
6.000000 -6.000000 30.000000 
6.000000 -18.000000 42.000000 
18.000000 -6.000000 30.000000 
18.000000 -18.000000 42.000000 
6.000000 -6.000000 42.000000 
18.000000 -6.000000 42.000000 
30.000000 -18.000000 30.000000 
30.000000 -6.000000 30.000000 
30.000000 -18.000000 42.000000 
42.000000 -18.000000 42.000000 
30.000000 -6.000000 42.000000 
18.000000 -42.000000 54.000000 
6.000000 -30.000000 54.000000 
18.000000 -30.000000 54.000000 
18.000000 -42.000000 66.000000 
6.000000 -30.000000 66.000000 
18.000000 -30.000000 66.000000 
30.000000 -42.000000 54.000000 
30.000000 -30.000000 54.000000 
30.000000 -42.000000 66.000000 
42.000000 -30.000000 54.000000 
42.000000 -42.000000 66.000000 
30.000000 -30.000000 66.000000 
42.000000 -30.000000 66.000000 
6.000000 -18.000000 54.000000 
18.000000 -18.000000 54.000000 
6.000000 -6.000000 54.000000 
6.000000 -18.000000 66.000000 
18.000000 -6.000000 54.000000 
18.000000 -18.000000 66.000000 
6.000000 -6.000000 66.000000 
18.000000 -6.000000 66.000000 
18.000000 -42.000000 78.000000 
6.000000 -30.000000 78.000000 
18.000000 -30.000000 78.000000 
6.000000 -30.000000 90.000000 
18.000000 -30.000000 90.000000 
30.000000 -18.000000 54.000000 
42.000000 -18.000000 54.000000 
30.000000 -6.000000 54.000000 
30.000000 -18.000000 66.000000 
42.000000 -6.000000 54.000000 
42.000000 -18.000000 66.000000 
30.000000 -6.000000 66.000000 
42.000000 -6.000000 66.000000 
30.000000 -42.000000 78.000000 
42.000000 -42.000000 78.000000 
30.000000 -30.000000 78.000000 
42.000000 -30.000000 78.000000 
42.000000 -30.000000 90.000000 
6.000000 -18.000000 78.000000 
18.000000 -18.000000 78.000000 
6.000000 -6.000000 78.000000 
6.000000 -18.000000 90.000000 
18.000000 -6.000000 78.000000 
18.000000 -18.000000 90.000000 
6.000000 -6.000000 90.000000 
18.000000 -6.000000 90.000000 
30.000000 -18.000000 78.000000 
42.000000 -18.000000 78.000000 
30.000000 -6.000000 78.000000 
42.000000 -6.000000 78.000000 
42.000000 -18.000000 90.000000 
42.000000 -6.000000 90.000000 
54.000000 -18.000000 66.000000 
54.000000 -6.000000 66.000000 
54.000000 -30.000000 78.000000 
54.000000 -30.000000 90.000000 
66.000000 -30.000000 90.000000 
54.000000 -18.000000 78.000000 
54.000000 -6.000000 78.000000 
54.000000 -18.000000 90.000000 
66.000000 -18.000000 90.000000 
54.000000 -6.000000 90.000000 
66.000000 -6.000000 90.000000 
6.000000 -30.000000 102.000000 
18.000000 -30.000000 102.000000 
6.000000 -30.000000 114.000000 
18.000000 -30.000000 114.000000 
6.000000 -18.000000 102.000000 
18.000000 -18.000000 102.000000 
6.000000 -6.000000 102.000000 
6.000000 -18.000000 114.000000 
18.000000 -6.000000 102.000000 
18.000000 -18.000000 114.000000 
6.000000 -6.000000 114.000000 
6.000000 -30.000000 126.000000 
18.000000 -30.000000 126.000000 
6.000000 -30.000000 138.000000 
18.000000 -30.000000 138.000000 
42.000000 -18.000000 102.000000 
42.000000 -6.000000 102.000000 
42.000000 -6.000000 114.000000 
30.000000 -30.000000 138.000000 
6.000000 -18.000000 126.000000 
18.000000 -18.000000 126.000000 
6.000000 -6.000000 126.000000 
6.000000 -18.000000 138.000000 
18.000000 -18.000000 138.000000 
6.000000 -6.000000 138.000000 
6.000000 -54.000000 150.000000 
18.000000 -54.000000 150.000000 
6.000000 -54.000000 162.000000 
18.000000 -54.000000 162.000000 
30.000000 -54.000000 150.000000 
30.000000 -54.000000 162.000000 
18.000000 -54.000000 174.000000 
54.000000 -30.000000 102.000000 
66.000000 -30.000000 102.000000 
54.000000 -30.000000 114.000000 
66.000000 -30.000000 114.000000 
78.000000 -30.000000 102.000000 
78.000000 -30.000000 114.000000 
54.000000 -18.000000 102.000000 
66.000000 -18.000000 102.000000 
54.000000 -6.000000 102.000000 
54.000000 -18.000000 114.000000 
66.000000 -6.000000 102.000000 
66.000000 -18.000000 114.000000 
54.000000 -6.000000 114.000000 
66.000000 -6.000000 114.000000 
78.000000 -18.000000 102.000000 
78.000000 -6.000000 102.000000 
78.000000 -18.000000 114.000000 
78.000000 -6.000000 114.000000 
78.000000 -30.000000 126.000000 
78.000000 -30.000000 138.000000 
66.000000 -18.000000 126.000000 
54.000000 -6.000000 126.000000 
66.000000 -6.000000 126.000000 
66.000000 -18.000000 138.000000 
66.000000 -6.000000 138.000000 
78.000000 -18.000000 126.000000 
90.000000 -18.000000 126.000000 
78.000000 -6.000000 126.000000 
78.000000 -18.000000 138.000000 
90.000000 -6.000000 126.000000 
90.000000 -18.000000 138.000000 
78.000000 -6.000000 138.000000 
90.000000 -6.000000 138.000000 
90.000000 -54.000000 150.000000 
6.000000 -42.000000 150.000000 
18.000000 -42.000000 150.000000 
6.000000 -30.000000 150.000000 
6.000000 -42.000000 162.000000 
