25.500000 -8.500000 -110.500000 
8.500000 -42.500000 -93.500000 
8.500000 -42.500000 -76.500000 
8.500000 -25.500000 -93.500000 
25.500000 -25.500000 -93.500000 
8.500000 -8.500000 -93.500000 
8.500000 -25.500000 -76.500000 
25.500000 -8.500000 -93.500000 
25.500000 -25.500000 -76.500000 
8.500000 -8.500000 -76.500000 
25.500000 -8.500000 -76.500000 
8.500000 -42.500000 -59.500000 
8.500000 -25.500000 -59.500000 
25.500000 -25.500000 -59.500000 
8.500000 -8.500000 -59.500000 
8.500000 -25.500000 -42.500000 
25.500000 -8.500000 -59.500000 
25.500000 -25.500000 -42.500000 
8.500000 -8.500000 -42.500000 
25.500000 -8.500000 -42.500000 
8.500000 -42.500000 -25.500000 
8.500000 -42.500000 -8.500000 
8.500000 -25.500000 -25.500000 
25.500000 -25.500000 -25.500000 
8.500000 -8.500000 -25.500000 
8.500000 -25.500000 -8.500000 
25.500000 -25.500000 -8.500000 
8.500000 -8.500000 -8.500000 
-76.500000 59.500000 -280.500000 
-8.500000 8.500000 -331.500000 
-25.500000 8.500000 -314.500000 
-8.500000 8.500000 -314.500000 
-25.500000 25.500000 -314.500000 
-8.500000 25.500000 -314.500000 
-42.500000 8.500000 -297.500000 
-42.500000 25.500000 -297.500000 
-42.500000 25.500000 -280.500000 
-25.500000 8.500000 -297.500000 
-8.500000 8.500000 -297.500000 
-25.500000 25.500000 -297.500000 
-8.500000 25.500000 -297.500000 
-42.500000 42.500000 -297.500000 
-59.500000 42.500000 -280.500000 
-42.500000 59.500000 -297.500000 
-42.500000 42.500000 -280.500000 
-59.500000 59.500000 -280.500000 
-42.500000 59.500000 -280.500000 
-25.500000 42.500000 -297.500000 
-8.500000 42.500000 -297.500000 
-25.500000 42.500000 -280.500000 
-8.500000 42.500000 -280.500000 
-25.500000 59.500000 -280.500000 
-8.500000 59.500000 -280.500000 
-76.500000 76.500000 -280.500000 
-93.500000 93.500000 -280.500000 
-76.500000 93.500000 -280.500000 
-110.500000 127.500000 -280.500000 
-93.500000 110.500000 -280.500000 
-76.500000 110.500000 -280.500000 
-93.500000 127.500000 -280.500000 
-76.500000 127.500000 -280.500000 
-59.500000 76.500000 -280.500000 
-42.500000 76.500000 -280.500000 
-59.500000 93.500000 -280.500000 
-42.500000 93.500000 -280.500000 
-25.500000 76.500000 -280.500000 
-25.500000 93.500000 -280.500000 
-59.500000 110.500000 -280.500000 
-42.500000 110.500000 -280.500000 
-59.500000 127.500000 -280.500000 
-42.500000 127.500000 -280.500000 
-161.500000 246.500000 -382.500000 
-144.500000 246.500000 -382.500000 
-161.500000 263.500000 -382.500000 
-144.500000 263.500000 -382.500000 
-161.500000 229.500000 -365.500000 
-161.500000 212.500000 -348.500000 
-144.500000 229.500000 -365.500000 
-144.500000 212.500000 -348.500000 
-161.500000 229.500000 -348.500000 
-144.500000 229.500000 -348.500000 
-161.500000 246.500000 -365.500000 
-144.500000 246.500000 -365.500000 
-144.500000 246.500000 -348.500000 
-144.500000 195.500000 -331.500000 
-144.500000 178.500000 -314.500000 
-144.500000 195.500000 -314.500000 
-144.500000 178.500000 -297.500000 
-144.500000 195.500000 -297.500000 
-144.500000 212.500000 -331.500000 
-144.500000 229.500000 -331.500000 
-144.500000 212.500000 -314.500000 
-127.500000 195.500000 -331.500000 
-127.500000 178.500000 -314.500000 
-127.500000 195.500000 -314.500000 
-110.500000 144.500000 -297.500000 
-127.500000 161.500000 -297.500000 
-110.500000 161.500000 -297.500000 
-110.500000 144.500000 -280.500000 
-127.500000 161.500000 -280.500000 
-110.500000 161.500000 -280.500000 
-93.500000 144.500000 -297.500000 
-93.500000 161.500000 -297.500000 
-93.500000 144.500000 -280.500000 
-76.500000 144.500000 -280.500000 
-93.500000 161.500000 -280.500000 
-76.500000 161.500000 -280.500000 
-127.500000 178.500000 -297.500000 
-110.500000 178.500000 -297.500000 
-127.500000 195.500000 -297.500000 
-110.500000 195.500000 -297.500000 
-110.500000 178.500000 -280.500000 
-93.500000 178.500000 -297.500000 
-59.500000 144.500000 -280.500000 
-127.500000 212.500000 -331.500000 
-127.500000 229.500000 -331.500000 
-127.500000 212.500000 -314.500000 
-518.500000 -297.500000 263.500000 
-416.500000 -229.500000 8.500000 
-382.500000 -246.500000 8.500000 
-365.500000 -246.500000 8.500000 
-399.500000 -229.500000 8.500000 
-382.500000 -229.500000 8.500000 
-399.500000 -212.500000 8.500000 
-399.500000 -229.500000 25.500000 
-382.500000 -229.500000 25.500000 
-399.500000 -212.500000 25.500000 
-382.500000 -212.500000 25.500000 
-365.500000 -229.500000 25.500000 
-348.500000 -229.500000 25.500000 
-365.500000 -212.500000 25.500000 
-382.500000 -229.500000 42.500000 
-382.500000 -212.500000 42.500000 
-365.500000 -229.500000 42.500000 
-348.500000 -229.500000 42.500000 
-365.500000 -212.500000 42.500000 
-348.500000 -212.500000 42.500000 
-331.500000 -229.500000 42.500000 
-331.500000 -212.500000 42.500000 
-314.500000 -212.500000 42.500000 
-331.500000 -212.500000 59.500000 
-314.500000 -212.500000 59.500000 
-297.500000 -212.500000 59.500000 
-280.500000 -212.500000 59.500000 
-382.500000 -195.500000 25.500000 
-365.500000 -195.500000 25.500000 
-348.500000 -195.500000 25.500000 
-382.500000 -195.500000 42.500000 
-365.500000 -195.500000 42.500000 
-348.500000 -195.500000 42.500000 
-348.500000 -178.500000 42.500000 
-331.500000 -195.500000 42.500000 
-314.500000 -195.500000 42.500000 
-331.500000 -178.500000 42.500000 
-331.500000 -195.500000 59.500000 
-314.500000 -178.500000 42.500000 
-314.500000 -195.500000 59.500000 
-331.500000 -178.500000 59.500000 
-314.500000 -178.500000 59.500000 
-297.500000 -195.500000 59.500000 
-280.500000 -195.500000 59.500000 
-297.500000 -178.500000 59.500000 
-280.500000 -178.500000 59.500000 
-331.500000 -161.500000 59.500000 
-314.500000 -161.500000 59.500000 
-297.500000 -161.500000 59.500000 
-280.500000 -161.500000 59.500000 
-297.500000 -144.500000 59.500000 
-280.500000 -144.500000 59.500000 
-297.500000 -195.500000 76.500000 
-280.500000 -195.500000 76.500000 
-297.500000 -178.500000 76.500000 
-280.500000 -178.500000 76.500000 
-297.500000 -161.500000 76.500000 
-280.500000 -161.500000 76.500000 
-297.500000 -144.500000 76.500000 
-280.500000 -144.500000 76.500000 
-518.500000 -297.500000 280.500000 
-518.500000 -297.500000 297.500000 
-518.500000 -280.500000 297.500000 
-501.500000 -280.500000 297.500000 
-518.500000 -297.500000 314.500000 
-518.500000 -280.500000 314.500000 
-518.500000 -297.500000 331.500000 
-518.500000 -280.500000 331.500000 
-501.500000 -297.500000 314.500000 
-501.500000 -280.500000 314.500000 
-501.500000 -297.500000 331.500000 
-484.500000 -297.500000 331.500000 
-501.500000 -280.500000 331.500000 
-518.500000 -297.500000 348.500000 
-518.500000 -280.500000 348.500000 
-518.500000 -297.500000 365.500000 
-518.500000 -280.500000 365.500000 
-501.500000 -297.500000 348.500000 
-484.500000 -297.500000 348.500000 
-501.500000 -280.500000 348.500000 
-501.500000 -297.500000 365.500000 
-484.500000 -297.500000 365.500000 
-501.500000 -280.500000 365.500000 
-484.500000 -280.500000 365.500000 
-501.500000 -297.500000 382.500000 
-484.500000 -297.500000 382.500000 
-501.500000 -280.500000 382.500000 
-484.500000 -280.500000 382.500000 
-484.500000 -297.500000 399.500000 
-484.500000 -280.500000 399.500000 
-467.500000 -297.500000 348.500000 
-467.500000 -280.500000 365.500000 
-467.500000 -297.500000 382.500000 
-450.500000 -297.500000 382.500000 
-467.500000 -280.500000 382.500000 
-467.500000 -297.500000 399.500000 
-450.500000 -280.500000 382.500000 
-450.500000 -297.500000 399.500000 
-467.500000 -280.500000 399.500000 
-450.500000 -280.500000 399.500000 
-501.500000 -280.500000 416.500000 
-467.500000 -297.500000 416.500000 
-450.500000 -297.500000 416.500000 
-467.500000 -280.500000 416.500000 
-467.500000 -297.500000 433.500000 
-450.500000 -280.500000 416.500000 
-450.500000 -297.500000 433.500000 
-450.500000 -280.500000 433.500000 
-433.500000 -297.500000 416.500000 
-433.500000 -280.500000 416.500000 
-433.500000 -297.500000 433.500000 
-433.500000 -280.500000 433.500000 
-416.500000 -280.500000 433.500000 
-433.500000 -280.500000 450.500000 
-399.500000 -280.500000 433.500000 
-314.500000 -280.500000 433.500000 
-263.500000 -212.500000 59.500000 
-263.500000 -195.500000 59.500000 
-246.500000 -195.500000 59.500000 
-263.500000 -178.500000 59.500000 
-246.500000 -178.500000 59.500000 
-229.500000 -195.500000 59.500000 
-229.500000 -178.500000 59.500000 
-212.500000 -178.500000 59.500000 
-263.500000 -161.500000 59.500000 
-246.500000 -161.500000 59.500000 
-263.500000 -144.500000 59.500000 
-246.500000 -144.500000 59.500000 
-229.500000 -161.500000 59.500000 
-212.500000 -161.500000 59.500000 
-229.500000 -144.500000 59.500000 
-212.500000 -144.500000 59.500000 
-195.500000 -178.500000 59.500000 
-178.500000 -161.500000 42.500000 
-195.500000 -144.500000 42.500000 
-195.500000 -161.500000 59.500000 
-178.500000 -144.500000 42.500000 
-195.500000 -144.500000 59.500000 
-178.500000 -144.500000 59.500000 
-161.500000 -144.500000 42.500000 
-263.500000 -195.500000 76.500000 
-246.500000 -195.500000 76.500000 
-263.500000 -178.500000 76.500000 
-246.500000 -178.500000 76.500000 
-263.500000 -161.500000 76.500000 
-246.500000 -161.500000 76.500000 
-263.500000 -144.500000 76.500000 
-246.500000 -144.500000 76.500000 
-263.500000 -127.500000 59.500000 
-246.500000 -127.500000 59.500000 
-212.500000 -127.500000 42.500000 
-229.500000 -127.500000 59.500000 
-212.500000 -110.500000 42.500000 
-212.500000 -127.500000 59.500000 
-229.500000 -110.500000 59.500000 
-212.500000 -110.500000 59.500000 
-212.500000 -93.500000 59.500000 
-161.500000 -110.500000 25.500000 
-144.500000 -110.500000 25.500000 
-195.500000 -127.500000 42.500000 
-178.500000 -127.500000 42.500000 
-195.500000 -110.500000 42.500000 
-195.500000 -127.500000 59.500000 
-178.500000 -110.500000 42.500000 
-178.500000 -127.500000 59.500000 
-195.500000 -110.500000 59.500000 
-178.500000 -110.500000 59.500000 
-144.500000 -93.500000 8.500000 
-161.500000 -93.500000 25.500000 
-144.500000 -76.500000 8.500000 
-144.500000 -93.500000 25.500000 
-161.500000 -76.500000 25.500000 
-144.500000 -76.500000 25.500000 
-161.500000 -127.500000 42.500000 
-144.500000 -127.500000 42.500000 
-161.500000 -110.500000 42.500000 
-144.500000 -110.500000 42.500000 
-195.500000 -93.500000 42.500000 
-178.500000 -93.500000 42.500000 
-195.500000 -93.500000 59.500000 
-178.500000 -76.500000 42.500000 
-178.500000 -93.500000 59.500000 
-161.500000 -93.500000 42.500000 
-144.500000 -93.500000 42.500000 
-161.500000 -76.500000 42.500000 
-144.500000 -76.500000 42.500000 
-144.500000 -59.500000 8.500000 
-144.500000 -59.500000 25.500000 
-127.500000 -110.500000 25.500000 
-110.500000 -110.500000 25.500000 
-127.500000 -93.500000 8.500000 
-110.500000 -93.500000 8.500000 
-127.500000 -76.500000 8.500000 
-127.500000 -93.500000 25.500000 
-110.500000 -76.500000 8.500000 
-110.500000 -93.500000 25.500000 
-127.500000 -76.500000 25.500000 
-110.500000 -76.500000 25.500000 
-93.500000 -93.500000 8.500000 
-93.500000 -76.500000 8.500000 
-93.500000 -93.500000 25.500000 
-127.500000 -59.500000 8.500000 
-110.500000 -59.500000 8.500000 
-110.500000 -42.500000 8.500000 
-93.500000 -59.500000 8.500000 
-93.500000 -42.500000 8.500000 
-8.500000 -42.500000 161.500000 
-8.500000 -25.500000 161.500000 
-8.500000 -8.500000 161.500000 
-8.500000 -42.500000 178.500000 
-8.500000 -42.500000 195.500000 
-8.500000 -25.500000 178.500000 
-25.500000 -25.500000 195.500000 
-8.500000 -8.500000 178.500000 
-8.500000 -25.500000 195.500000 
-25.500000 -8.500000 195.500000 
-8.500000 -8.500000 195.500000 
-42.500000 -76.500000 263.500000 
-25.500000 -76.500000 246.500000 
-8.500000 -76.500000 246.500000 
-25.500000 -76.500000 263.500000 
-8.500000 -76.500000 263.500000 
-8.500000 -59.500000 212.500000 
-25.500000 -42.500000 212.500000 
-25.500000 -59.500000 229.500000 
-8.500000 -42.500000 212.500000 
-8.500000 -59.500000 229.500000 
-25.500000 -42.500000 229.500000 
-8.500000 -42.500000 229.500000 
-42.500000 -59.500000 246.500000 
-42.500000 -42.500000 246.500000 
-42.500000 -59.500000 263.500000 
-42.500000 -42.500000 263.500000 
-25.500000 -25.500000 212.500000 
-8.500000 -25.500000 212.500000 
-25.500000 -8.500000 212.500000 
-25.500000 -25.500000 229.500000 
-8.500000 -8.500000 212.500000 
-8.500000 -25.500000 229.500000 
-25.500000 -8.500000 229.500000 
-8.500000 -8.500000 229.500000 
-25.500000 -59.500000 246.500000 
-8.500000 -59.500000 246.500000 
-25.500000 -42.500000 246.500000 
-25.500000 -59.500000 263.500000 
-8.500000 -42.500000 246.500000 
-8.500000 -59.500000 263.500000 
-25.500000 -42.500000 263.500000 
-8.500000 -42.500000 263.500000 
-42.500000 -25.500000 246.500000 
-42.500000 -8.500000 246.500000 
-42.500000 -25.500000 263.500000 
-42.500000 -8.500000 263.500000 
-25.500000 -25.500000 246.500000 
-8.500000 -25.500000 246.500000 
-25.500000 -8.500000 246.500000 
-25.500000 -25.500000 263.500000 
-8.500000 -8.500000 246.500000 
-8.500000 -25.500000 263.500000 
-25.500000 -8.500000 263.500000 
-8.500000 -8.500000 263.500000 
-501.500000 -263.500000 365.500000 
-501.500000 -263.500000 382.500000 
-484.500000 -263.500000 382.500000 
-484.500000 -263.500000 399.500000 
-484.500000 -246.500000 399.500000 
-467.500000 -263.500000 382.500000 
-467.500000 -263.500000 399.500000 
-450.500000 -263.500000 399.500000 
-467.500000 -246.500000 399.500000 
-467.500000 -263.500000 416.500000 
-450.500000 -263.500000 416.500000 
-467.500000 -246.500000 416.500000 
-467.500000 -263.500000 433.500000 
-450.500000 -246.500000 416.500000 
-450.500000 -263.500000 433.500000 
-467.500000 -246.500000 433.500000 
-450.500000 -246.500000 433.500000 
-433.500000 -263.500000 416.500000 
-433.500000 -263.500000 433.500000 
-416.500000 -263.500000 433.500000 
-433.500000 -246.500000 433.500000 
-416.500000 -246.500000 433.500000 
-467.500000 -229.500000 433.500000 
-450.500000 -229.500000 433.500000 
-450.500000 -263.500000 450.500000 
-467.500000 -246.500000 450.500000 
-450.500000 -246.500000 450.500000 
-433.500000 -229.500000 433.500000 
-416.500000 -229.500000 433.500000 
-433.500000 -212.500000 433.500000 
-416.500000 -212.500000 433.500000 
-433.500000 -263.500000 450.500000 
-416.500000 -263.500000 450.500000 
-433.500000 -246.500000 450.500000 
-416.500000 -246.500000 450.500000 
-450.500000 -229.500000 450.500000 
-450.500000 -212.500000 450.500000 
-433.500000 -229.500000 450.500000 
-416.500000 -229.500000 450.500000 
-433.500000 -212.500000 450.500000 
-416.500000 -212.500000 450.500000 
-416.500000 -195.500000 433.500000 
-433.500000 -195.500000 450.500000 
-416.500000 -195.500000 450.500000 
-399.500000 -263.500000 433.500000 
-382.500000 -263.500000 433.500000 
-399.500000 -246.500000 433.500000 
-382.500000 -246.500000 433.500000 
-365.500000 -263.500000 433.500000 
-348.500000 -246.500000 433.500000 
-399.500000 -229.500000 433.500000 
-382.500000 -229.500000 433.500000 
-399.500000 -212.500000 433.500000 
-382.500000 -212.500000 433.500000 
-399.500000 -263.500000 450.500000 
-382.500000 -263.500000 450.500000 
-399.500000 -246.500000 450.500000 
-382.500000 -246.500000 450.500000 
-382.500000 -263.500000 467.500000 
-382.500000 -246.500000 467.500000 
-365.500000 -229.500000 433.500000 
-348.500000 -229.500000 433.500000 
-365.500000 -212.500000 433.500000 
-365.500000 -263.500000 450.500000 
-348.500000 -263.500000 450.500000 
-365.500000 -246.500000 450.500000 
-365.500000 -263.500000 467.500000 
-348.500000 -246.500000 450.500000 
-348.500000 -263.500000 467.500000 
-365.500000 -246.500000 467.500000 
-348.500000 -246.500000 467.500000 
-399.500000 -229.500000 450.500000 
-382.500000 -229.500000 450.500000 
-399.500000 -212.500000 450.500000 
-399.500000 -229.500000 467.500000 
-382.500000 -212.500000 450.500000 
-382.500000 -229.500000 467.500000 
-382.500000 -212.500000 467.500000 
-365.500000 -229.500000 450.500000 
-348.500000 -229.500000 450.500000 
-365.500000 -212.500000 450.500000 
-365.500000 -229.500000 467.500000 
-348.500000 -212.500000 450.500000 
-348.500000 -229.500000 467.500000 
-365.500000 -212.500000 467.500000 
-348.500000 -212.500000 467.500000 
-314.500000 -263.500000 433.500000 
-314.500000 -246.500000 433.500000 
-297.500000 -263.500000 433.500000 
-280.500000 -263.500000 433.500000 
-297.500000 -246.500000 433.500000 
-280.500000 -246.500000 433.500000 
-314.500000 -229.500000 433.500000 
-314.500000 -212.500000 433.500000 
-331.500000 -263.500000 450.500000 
-314.500000 -263.500000 450.500000 
-331.500000 -246.500000 450.500000 
-331.500000 -263.500000 467.500000 
-314.500000 -246.500000 450.500000 
-331.500000 -246.500000 467.500000 
-297.500000 -229.500000 433.500000 
-280.500000 -229.500000 433.500000 
-297.500000 -212.500000 433.500000 
-280.500000 -212.500000 433.500000 
-297.500000 -263.500000 450.500000 
-280.500000 -263.500000 450.500000 
-297.500000 -246.500000 450.500000 
-280.500000 -246.500000 450.500000 
-331.500000 -229.500000 450.500000 
-314.500000 -229.500000 450.500000 
-331.500000 -212.500000 450.500000 
-331.500000 -229.500000 467.500000 
-314.500000 -212.500000 450.500000 
-314.500000 -229.500000 467.500000 
-331.500000 -212.500000 467.500000 
-314.500000 -212.500000 467.500000 
-297.500000 -229.500000 450.500000 
-280.500000 -229.500000 450.500000 
-297.500000 -212.500000 450.500000 
-280.500000 -212.500000 450.500000 
-297.500000 -212.500000 467.500000 
-399.500000 -195.500000 433.500000 
-382.500000 -195.500000 433.500000 
-399.500000 -178.500000 433.500000 
-382.500000 -178.500000 433.500000 
-365.500000 -195.500000 433.500000 
-348.500000 -195.500000 433.500000 
-365.500000 -178.500000 433.500000 
-348.500000 -178.500000 433.500000 
-399.500000 -195.500000 450.500000 
-382.500000 -195.500000 450.500000 
-399.500000 -178.500000 450.500000 
-382.500000 -178.500000 450.500000 
-365.500000 -195.500000 450.500000 
-348.500000 -195.500000 450.500000 
-365.500000 -178.500000 450.500000 
-365.500000 -195.500000 467.500000 
-348.500000 -178.500000 450.500000 
-348.500000 -195.500000 467.500000 
-348.500000 -178.500000 467.500000 
-382.500000 -161.500000 450.500000 
-365.500000 -161.500000 450.500000 
-348.500000 -161.500000 450.500000 
-348.500000 -144.500000 450.500000 
-348.500000 -161.500000 467.500000 
-314.500000 -195.500000 433.500000 
-314.500000 -178.500000 433.500000 
-297.500000 -195.500000 433.500000 
-280.500000 -195.500000 433.500000 
-331.500000 -195.500000 450.500000 
-314.500000 -195.500000 450.500000 
-331.500000 -178.500000 450.500000 
-331.500000 -195.500000 467.500000 
-314.500000 -178.500000 450.500000 
-314.500000 -195.500000 467.500000 
-331.500000 -178.500000 467.500000 
-314.500000 -178.500000 467.500000 
-297.500000 -195.500000 450.500000 
-280.500000 -195.500000 450.500000 
-297.500000 -178.500000 450.500000 
-297.500000 -195.500000 467.500000 
-280.500000 -178.500000 450.500000 
-280.500000 -195.500000 467.500000 
-297.500000 -178.500000 467.500000 
-280.500000 -178.500000 467.500000 
-331.500000 -161.500000 450.500000 
-314.500000 -161.500000 450.500000 
-331.500000 -144.500000 450.500000 
-331.500000 -161.500000 467.500000 
-314.500000 -144.500000 450.500000 
-314.500000 -161.500000 467.500000 
-314.500000 -144.500000 467.500000 
-297.500000 -161.500000 450.500000 
-280.500000 -161.500000 450.500000 
-297.500000 -144.500000 450.500000 
-297.500000 -161.500000 467.500000 
-280.500000 -144.500000 450.500000 
-280.500000 -161.500000 467.500000 
-297.500000 -144.500000 467.500000 
-280.500000 -144.500000 467.500000 
-280.500000 -144.500000 484.500000 
-331.500000 -127.500000 450.500000 
-314.500000 -127.500000 450.500000 
-314.500000 -127.500000 467.500000 
-297.500000 -127.500000 450.500000 
-280.500000 -127.500000 450.500000 
-297.500000 -110.500000 450.500000 
-297.500000 -127.500000 467.500000 
-280.500000 -110.500000 450.500000 
-280.500000 -127.500000 467.500000 
-178.500000 -178.500000 399.500000 
-161.500000 -178.500000 399.500000 
-195.500000 -161.500000 399.500000 
-178.500000 -144.500000 382.500000 
-178.500000 -161.500000 399.500000 
-195.500000 -144.500000 399.500000 
-178.500000 -144.500000 399.500000 
-161.500000 -161.500000 382.500000 
-144.500000 -161.500000 382.500000 
-161.500000 -144.500000 382.500000 
-161.500000 -161.500000 399.500000 
-144.500000 -144.500000 382.500000 
-144.500000 -161.500000 399.500000 
-161.500000 -144.500000 399.500000 
-144.500000 -144.500000 399.500000 
-127.500000 -161.500000 382.500000 
-127.500000 -144.500000 382.500000 
-110.500000 -144.500000 382.500000 
-127.500000 -144.500000 399.500000 
-144.500000 -110.500000 365.500000 
-178.500000 -127.500000 382.500000 
-178.500000 -127.500000 399.500000 
-195.500000 -110.500000 399.500000 
-178.500000 -110.500000 399.500000 
-161.500000 -93.500000 365.500000 
-144.500000 -93.500000 365.500000 
-161.500000 -76.500000 365.500000 
-144.500000 -76.500000 365.500000 
-161.500000 -127.500000 382.500000 
-144.500000 -127.500000 382.500000 
-161.500000 -110.500000 382.500000 
-161.500000 -127.500000 399.500000 
-144.500000 -110.500000 382.500000 
-144.500000 -127.500000 399.500000 
-161.500000 -110.500000 399.500000 
-144.500000 -110.500000 399.500000 
-178.500000 -93.500000 382.500000 
-178.500000 -76.500000 382.500000 
-178.500000 -93.500000 399.500000 
-178.500000 -76.500000 399.500000 
-161.500000 -93.500000 382.500000 
-144.500000 -93.500000 382.500000 
-161.500000 -76.500000 382.500000 
-161.500000 -93.500000 399.500000 
-144.500000 -76.500000 382.500000 
-144.500000 -93.500000 399.500000 
-161.500000 -76.500000 399.500000 
-144.500000 -59.500000 348.500000 
-144.500000 -59.500000 365.500000 
-161.500000 -59.500000 382.500000 
-144.500000 -59.500000 382.500000 
-263.500000 -263.500000 433.500000 
-263.500000 -246.500000 433.500000 
-263.500000 -229.500000 433.500000 
-246.500000 -229.500000 433.500000 
-263.500000 -212.500000 433.500000 
-246.500000 -212.500000 433.500000 
-263.500000 -263.500000 450.500000 
-263.500000 -246.500000 450.500000 
-229.500000 -246.500000 450.500000 
-263.500000 -229.500000 450.500000 
-246.500000 -229.500000 450.500000 
-263.500000 -212.500000 450.500000 
-246.500000 -212.500000 450.500000 
-229.500000 -229.500000 450.500000 
-212.500000 -229.500000 450.500000 
-229.500000 -212.500000 450.500000 
-195.500000 -263.500000 450.500000 
-195.500000 -246.500000 450.500000 
-263.500000 -195.500000 433.500000 
-229.500000 -178.500000 433.500000 
-212.500000 -178.500000 433.500000 
-246.500000 -161.500000 433.500000 
-246.500000 -144.500000 433.500000 
-263.500000 -195.500000 450.500000 
-246.500000 -195.500000 450.500000 
-263.500000 -178.500000 450.500000 
-246.500000 -178.500000 450.500000 
-263.500000 -178.500000 467.500000 
-212.500000 -161.500000 416.500000 
-229.500000 -144.500000 416.500000 
-229.500000 -161.500000 433.500000 
-212.500000 -144.500000 416.500000 
-212.500000 -161.500000 433.500000 
-229.500000 -144.500000 433.500000 
-212.500000 -144.500000 433.500000 
-229.500000 -195.500000 450.500000 
-212.500000 -195.500000 450.500000 
-229.500000 -178.500000 450.500000 
-212.500000 -178.500000 450.500000 
-263.500000 -161.500000 450.500000 
-246.500000 -161.500000 450.500000 
-263.500000 -144.500000 450.500000 
-263.500000 -161.500000 467.500000 
-246.500000 -144.500000 450.500000 
-263.500000 -144.500000 467.500000 
-246.500000 -144.500000 467.500000 
-229.500000 -161.500000 450.500000 
-212.500000 -161.500000 450.500000 
-229.500000 -144.500000 450.500000 
-212.500000 -144.500000 450.500000 
-195.500000 -178.500000 416.500000 
-195.500000 -178.500000 433.500000 
-195.500000 -161.500000 416.500000 
-178.500000 -161.500000 416.500000 
-195.500000 -144.500000 416.500000 
-195.500000 -161.500000 433.500000 
-178.500000 -144.500000 416.500000 
-195.500000 -144.500000 433.500000 
-195.500000 -195.500000 450.500000 
-195.500000 -178.500000 450.500000 
-195.500000 -161.500000 450.500000 
-110.500000 -110.500000 331.500000 
-76.500000 -76.500000 297.500000 
-76.500000 -110.500000 314.500000 
-93.500000 -110.500000 331.500000 
-76.500000 -110.500000 331.500000 
-110.500000 -93.500000 331.500000 
-110.500000 -76.500000 331.500000 
-76.500000 -93.500000 314.500000 
-93.500000 -76.500000 314.500000 
-93.500000 -93.500000 331.500000 
-76.500000 -76.500000 314.500000 
-76.500000 -93.500000 331.500000 
-93.500000 -76.500000 331.500000 
-76.500000 -76.500000 331.500000 
-42.500000 -93.500000 280.500000 
-59.500000 -76.500000 280.500000 
-59.500000 -93.500000 297.500000 
-42.500000 -76.500000 280.500000 
-42.500000 -93.500000 297.500000 
-59.500000 -76.500000 297.500000 
-42.500000 -76.500000 297.500000 
-59.500000 -110.500000 314.500000 
-42.500000 -110.500000 314.500000 
-59.500000 -110.500000 331.500000 
-25.500000 -93.500000 280.500000 
-25.500000 -76.500000 280.500000 
-8.500000 -76.500000 280.500000 
-59.500000 -93.500000 314.500000 
-42.500000 -93.500000 314.500000 
-59.500000 -76.500000 314.500000 
-59.500000 -93.500000 331.500000 
-42.500000 -76.500000 314.500000 
-59.500000 -76.500000 331.500000 
-76.500000 -59.500000 280.500000 
-93.500000 -59.500000 297.500000 
-76.500000 -42.500000 280.500000 
-76.500000 -59.500000 297.500000 
-93.500000 -42.500000 297.500000 
-76.500000 -42.500000 297.500000 
-110.500000 -42.500000 314.500000 
-110.500000 -59.500000 331.500000 
-110.500000 -42.500000 331.500000 
-76.500000 -25.500000 280.500000 
-76.500000 -25.500000 297.500000 
-93.500000 -59.500000 314.500000 
-76.500000 -59.500000 314.500000 
-93.500000 -42.500000 314.500000 
-93.500000 -59.500000 331.500000 
-76.500000 -42.500000 314.500000 
-76.500000 -59.500000 331.500000 
-93.500000 -42.500000 331.500000 
-110.500000 -127.500000 348.500000 
-110.500000 -110.500000 348.500000 
-110.500000 -127.500000 365.500000 
-127.500000 -110.500000 365.500000 
-110.500000 -110.500000 365.500000 
-76.500000 -127.500000 348.500000 
-93.500000 -110.500000 348.500000 
-93.500000 -127.500000 365.500000 
-93.500000 -110.500000 365.500000 
-127.500000 -93.500000 348.500000 
-110.500000 -93.500000 348.500000 
-127.500000 -76.500000 348.500000 
-127.500000 -93.500000 365.500000 
-110.500000 -76.500000 348.500000 
-110.500000 -93.500000 365.500000 
-127.500000 -76.500000 365.500000 
-110.500000 -76.500000 365.500000 
-127.500000 -127.500000 382.500000 
-110.500000 -127.500000 382.500000 
-127.500000 -110.500000 382.500000 
-127.500000 -127.500000 399.500000 
-110.500000 -110.500000 382.500000 
-127.500000 -110.500000 399.500000 
-93.500000 -93.500000 348.500000 
-76.500000 -93.500000 348.500000 
-93.500000 -76.500000 348.500000 
-93.500000 -93.500000 365.500000 
-76.500000 -76.500000 348.500000 
-93.500000 -76.500000 365.500000 
-127.500000 -93.500000 382.500000 
-110.500000 -93.500000 382.500000 
-127.500000 -76.500000 382.500000 
-59.500000 -59.500000 280.500000 
-42.500000 -59.500000 280.500000 
-59.500000 -42.500000 280.500000 
-59.500000 -59.500000 297.500000 
-42.500000 -42.500000 280.500000 
-42.500000 -59.500000 297.500000 
-59.500000 -42.500000 297.500000 
-42.500000 -42.500000 297.500000 
-25.500000 -59.500000 280.500000 
-8.500000 -59.500000 280.500000 
-25.500000 -42.500000 280.500000 
-59.500000 -25.500000 280.500000 
-42.500000 -25.500000 280.500000 
-59.500000 -25.500000 297.500000 
-42.500000 -8.500000 280.500000 
-59.500000 -59.500000 314.500000 
-59.500000 -42.500000 314.500000 
-59.500000 -59.500000 331.500000 
-25.500000 -25.500000 280.500000 
-8.500000 -25.500000 280.500000 
-25.500000 -8.500000 280.500000 
-8.500000 -8.500000 280.500000 
-8.500000 -25.500000 297.500000 
-8.500000 -8.500000 297.500000 
-8.500000 -42.500000 314.500000 
-8.500000 -42.500000 331.500000 
-8.500000 -25.500000 314.500000 
-8.500000 -8.500000 314.500000 
-8.500000 -25.500000 331.500000 
-8.500000 -8.500000 331.500000 
-8.500000 -76.500000 399.500000 
-127.500000 -59.500000 348.500000 
-110.500000 -59.500000 348.500000 
-127.500000 -42.500000 348.500000 
-127.500000 -59.500000 365.500000 
-110.500000 -42.500000 348.500000 
-110.500000 -59.500000 365.500000 
-93.500000 -59.500000 348.500000 
-93.500000 -42.500000 348.500000 
-8.500000 -42.500000 348.500000 
-8.500000 -59.500000 365.500000 
-25.500000 -42.500000 365.500000 
-8.500000 -42.500000 365.500000 
-8.500000 -25.500000 348.500000 
-25.500000 -25.500000 365.500000 
-8.500000 -8.500000 348.500000 
-8.500000 -25.500000 365.500000 
-8.500000 -8.500000 365.500000 
-8.500000 -59.500000 382.500000 
-25.500000 -42.500000 382.500000 
-25.500000 -59.500000 399.500000 
-8.500000 -42.500000 382.500000 
-8.500000 -59.500000 399.500000 
-25.500000 -42.500000 399.500000 
-8.500000 -42.500000 399.500000 
-25.500000 -25.500000 382.500000 
-8.500000 -25.500000 382.500000 
-25.500000 -8.500000 382.500000 
-25.500000 -25.500000 399.500000 
-8.500000 -8.500000 382.500000 
-8.500000 -25.500000 399.500000 
-25.500000 -8.500000 399.500000 
-8.500000 -8.500000 399.500000 
-246.500000 -127.500000 433.500000 
-246.500000 -110.500000 433.500000 
-229.500000 -127.500000 416.500000 
-212.500000 -127.500000 416.500000 
-229.500000 -110.500000 416.500000 
-229.500000 -127.500000 433.500000 
-212.500000 -110.500000 416.500000 
-212.500000 -127.500000 433.500000 
-229.500000 -110.500000 433.500000 
-212.500000 -110.500000 433.500000 
-263.500000 -127.500000 450.500000 
-246.500000 -127.500000 450.500000 
-263.500000 -110.500000 450.500000 
-263.500000 -127.500000 467.500000 
-246.500000 -110.500000 450.500000 
-246.500000 -127.500000 467.500000 
-229.500000 -93.500000 416.500000 
-212.500000 -93.500000 416.500000 
-229.500000 -127.500000 450.500000 
-229.500000 -110.500000 450.500000 
-195.500000 -127.500000 416.500000 
-178.500000 -127.500000 416.500000 
-195.500000 -110.500000 416.500000 
-195.500000 -127.500000 433.500000 
-178.500000 -110.500000 416.500000 
-178.500000 -127.500000 433.500000 
-195.500000 -110.500000 433.500000 
-161.500000 -127.500000 416.500000 
-161.500000 -110.500000 416.500000 
-195.500000 -93.500000 416.500000 
-178.500000 -93.500000 416.500000 
-195.500000 -76.500000 416.500000 
-178.500000 -76.500000 416.500000 
-161.500000 -93.500000 416.500000 
-8.500000 -110.500000 433.500000 
-42.500000 -76.500000 416.500000 
-42.500000 -93.500000 433.500000 
-59.500000 -76.500000 433.500000 
-42.500000 -76.500000 433.500000 
-25.500000 -93.500000 416.500000 
-8.500000 -93.500000 416.500000 
-25.500000 -76.500000 416.500000 
-25.500000 -93.500000 433.500000 
-8.500000 -76.500000 416.500000 
-8.500000 -93.500000 433.500000 
-25.500000 -76.500000 433.500000 
-8.500000 -76.500000 433.500000 
-25.500000 -110.500000 450.500000 
-8.500000 -110.500000 450.500000 
-59.500000 -76.500000 450.500000 
-59.500000 -93.500000 467.500000 
-42.500000 -76.500000 450.500000 
-42.500000 -93.500000 467.500000 
-59.500000 -76.500000 467.500000 
-42.500000 -76.500000 467.500000 
-25.500000 -76.500000 450.500000 
-25.500000 -93.500000 467.500000 
-8.500000 -76.500000 450.500000 
-8.500000 -93.500000 467.500000 
-25.500000 -76.500000 467.500000 
-8.500000 -76.500000 467.500000 
-76.500000 -59.500000 450.500000 
-76.500000 -42.500000 450.500000 
-76.500000 -59.500000 467.500000 
-93.500000 -42.500000 467.500000 
-76.500000 -42.500000 467.500000 
-76.500000 -25.500000 450.500000 
-93.500000 -25.500000 467.500000 
-76.500000 -8.500000 450.500000 
-76.500000 -25.500000 467.500000 
-76.500000 -8.500000 467.500000 
-110.500000 -110.500000 535.500000 
-76.500000 -76.500000 484.500000 
-76.500000 -93.500000 501.500000 
-93.500000 -76.500000 501.500000 
-76.500000 -76.500000 501.500000 
-93.500000 -110.500000 535.500000 
-76.500000 -110.500000 535.500000 
-110.500000 -93.500000 518.500000 
-110.500000 -76.500000 518.500000 
-110.500000 -93.500000 535.500000 
-110.500000 -76.500000 535.500000 
-93.500000 -93.500000 518.500000 
-76.500000 -93.500000 518.500000 
-93.500000 -76.500000 518.500000 
-93.500000 -93.500000 535.500000 
-76.500000 -76.500000 518.500000 
-76.500000 -93.500000 535.500000 
-93.500000 -76.500000 535.500000 
-76.500000 -76.500000 535.500000 
-42.500000 -59.500000 416.500000 
-59.500000 -59.500000 433.500000 
-42.500000 -42.500000 416.500000 
-42.500000 -59.500000 433.500000 
-59.500000 -42.500000 433.500000 
-42.500000 -42.500000 433.500000 
-25.500000 -59.500000 416.500000 
-8.500000 -59.500000 416.500000 
-25.500000 -42.500000 416.500000 
-25.500000 -59.500000 433.500000 
-8.500000 -42.500000 416.500000 
-8.500000 -59.500000 433.500000 
-25.500000 -42.500000 433.500000 
-8.500000 -42.500000 433.500000 
-42.500000 -25.500000 416.500000 
-59.500000 -25.500000 433.500000 
-42.500000 -8.500000 416.500000 
-42.500000 -25.500000 433.500000 
-59.500000 -8.500000 433.500000 
-42.500000 -8.500000 433.500000 
-59.500000 -59.500000 450.500000 
-42.500000 -59.500000 450.500000 
-59.500000 -42.500000 450.500000 
-59.500000 -59.500000 467.500000 
-42.500000 -42.500000 450.500000 
-42.500000 -59.500000 467.500000 
-59.500000 -42.500000 467.500000 
-42.500000 -42.500000 467.500000 
-25.500000 -25.500000 416.500000 
-8.500000 -25.500000 416.500000 
-25.500000 -8.500000 416.500000 
-25.500000 -25.500000 433.500000 
-8.500000 -8.500000 416.500000 
-8.500000 -25.500000 433.500000 
-25.500000 -8.500000 433.500000 
-8.500000 -8.500000 433.500000 
-25.500000 -59.500000 450.500000 
-8.500000 -59.500000 450.500000 
-25.500000 -42.500000 450.500000 
-25.500000 -59.500000 467.500000 
-8.500000 -42.500000 450.500000 
-8.500000 -59.500000 467.500000 
-25.500000 -42.500000 467.500000 
-8.500000 -42.500000 467.500000 
-59.500000 -25.500000 450.500000 
-42.500000 -25.500000 450.500000 
-59.500000 -8.500000 450.500000 
-59.500000 -25.500000 467.500000 
-42.500000 -8.500000 450.500000 
-42.500000 -25.500000 467.500000 
-59.500000 -8.500000 467.500000 
-42.500000 -8.500000 467.500000 
-25.500000 -25.500000 450.500000 
-8.500000 -25.500000 450.500000 
-25.500000 -8.500000 450.500000 
-25.500000 -25.500000 467.500000 
-8.500000 -8.500000 450.500000 
-8.500000 -25.500000 467.500000 
-25.500000 -8.500000 467.500000 
-8.500000 -8.500000 467.500000 
-59.500000 -93.500000 484.500000 
-42.500000 -93.500000 484.500000 
-59.500000 -76.500000 484.500000 
-59.500000 -93.500000 501.500000 
-42.500000 -76.500000 484.500000 
-42.500000 -93.500000 501.500000 
-59.500000 -76.500000 501.500000 
-42.500000 -76.500000 501.500000 
-59.500000 -110.500000 535.500000 
-42.500000 -110.500000 535.500000 
-25.500000 -93.500000 484.500000 
-8.500000 -93.500000 484.500000 
-25.500000 -76.500000 484.500000 
-25.500000 -93.500000 501.500000 
-8.500000 -76.500000 484.500000 
-8.500000 -93.500000 501.500000 
-25.500000 -76.500000 501.500000 
-8.500000 -76.500000 501.500000 
-8.500000 -110.500000 535.500000 
-59.500000 -93.500000 518.500000 
-42.500000 -93.500000 518.500000 
-59.500000 -76.500000 518.500000 
-42.500000 -76.500000 518.500000 
-42.500000 -93.500000 535.500000 
-8.500000 -93.500000 518.500000 
-25.500000 -76.500000 518.500000 
-25.500000 -93.500000 535.500000 
-8.500000 -76.500000 518.500000 
-8.500000 -93.500000 535.500000 
-25.500000 -76.500000 535.500000 
-8.500000 -76.500000 535.500000 
-110.500000 -42.500000 501.500000 
-93.500000 -59.500000 484.500000 
-76.500000 -59.500000 484.500000 
-93.500000 -42.500000 484.500000 
-93.500000 -59.500000 501.500000 
-76.500000 -42.500000 484.500000 
-76.500000 -59.500000 501.500000 
-93.500000 -42.500000 501.500000 
-76.500000 -42.500000 501.500000 
-110.500000 -25.500000 501.500000 
-110.500000 -59.500000 518.500000 
-110.500000 -42.500000 518.500000 
-110.500000 -59.500000 535.500000 
-110.500000 -42.500000 535.500000 
-93.500000 -25.500000 484.500000 
-76.500000 -25.500000 484.500000 
-93.500000 -8.500000 484.500000 
-93.500000 -25.500000 501.500000 
-76.500000 -8.500000 484.500000 
-76.500000 -25.500000 501.500000 
-93.500000 -8.500000 501.500000 
-76.500000 -8.500000 501.500000 
-93.500000 -59.500000 518.500000 
-76.500000 -59.500000 518.500000 
-93.500000 -42.500000 518.500000 
-93.500000 -59.500000 535.500000 
-76.500000 -42.500000 518.500000 
-76.500000 -59.500000 535.500000 
-93.500000 -42.500000 535.500000 
-76.500000 -42.500000 535.500000 
-110.500000 -25.500000 518.500000 
-110.500000 -25.500000 535.500000 
-110.500000 -8.500000 535.500000 
-93.500000 -25.500000 518.500000 
-76.500000 -25.500000 518.500000 
-93.500000 -8.500000 518.500000 
-93.500000 -25.500000 535.500000 
-76.500000 -25.500000 535.500000 
-93.500000 -8.500000 535.500000 
-76.500000 -8.500000 535.500000 
-59.500000 -59.500000 484.500000 
-42.500000 -59.500000 484.500000 
-59.500000 -42.500000 484.500000 
-59.500000 -59.500000 501.500000 
-42.500000 -42.500000 484.500000 
-42.500000 -59.500000 501.500000 
-59.500000 -42.500000 501.500000 
-42.500000 -42.500000 501.500000 
-25.500000 -59.500000 484.500000 
-8.500000 -59.500000 484.500000 
-25.500000 -42.500000 484.500000 
-25.500000 -59.500000 501.500000 
-8.500000 -42.500000 484.500000 
-8.500000 -59.500000 501.500000 
-25.500000 -42.500000 501.500000 
-8.500000 -42.500000 501.500000 
-59.500000 -25.500000 484.500000 
-42.500000 -25.500000 484.500000 
-59.500000 -8.500000 484.500000 
-59.500000 -25.500000 501.500000 
-42.500000 -8.500000 484.500000 
-42.500000 -25.500000 501.500000 
-59.500000 -8.500000 501.500000 
-42.500000 -8.500000 501.500000 
-59.500000 -59.500000 518.500000 
-59.500000 -42.500000 518.500000 
-42.500000 -42.500000 518.500000 
-42.500000 -59.500000 535.500000 
-59.500000 -42.500000 535.500000 
-42.500000 -42.500000 535.500000 
-25.500000 -25.500000 484.500000 
-8.500000 -25.500000 484.500000 
-25.500000 -8.500000 484.500000 
-25.500000 -25.500000 501.500000 
-8.500000 -8.500000 484.500000 
-8.500000 -25.500000 501.500000 
-25.500000 -8.500000 501.500000 
-8.500000 -8.500000 501.500000 
-25.500000 -59.500000 518.500000 
-8.500000 -59.500000 518.500000 
-25.500000 -42.500000 518.500000 
-25.500000 -59.500000 535.500000 
-8.500000 -42.500000 518.500000 
-8.500000 -59.500000 535.500000 
-25.500000 -42.500000 535.500000 
-8.500000 -42.500000 535.500000 
-59.500000 -25.500000 518.500000 
-42.500000 -25.500000 518.500000 
-59.500000 -8.500000 518.500000 
-59.500000 -25.500000 535.500000 
-42.500000 -8.500000 518.500000 
-42.500000 -25.500000 535.500000 
-59.500000 -8.500000 535.500000 
-42.500000 -8.500000 535.500000 
-25.500000 -25.500000 518.500000 
-8.500000 -25.500000 518.500000 
-25.500000 -8.500000 518.500000 
-25.500000 -25.500000 535.500000 
-8.500000 -8.500000 518.500000 
-8.500000 -25.500000 535.500000 
-25.500000 -8.500000 535.500000 
-8.500000 -8.500000 535.500000 
-484.500000 -195.500000 603.500000 
-484.500000 -178.500000 620.500000 
-484.500000 -178.500000 637.500000 
-467.500000 -178.500000 620.500000 
-467.500000 -178.500000 637.500000 
-450.500000 -178.500000 637.500000 
-433.500000 -178.500000 637.500000 
-467.500000 -161.500000 637.500000 
-450.500000 -161.500000 637.500000 
-467.500000 -178.500000 654.500000 
-450.500000 -178.500000 654.500000 
-433.500000 -161.500000 637.500000 
-433.500000 -144.500000 637.500000 
-416.500000 -144.500000 637.500000 
-433.500000 -178.500000 654.500000 
-416.500000 -178.500000 654.500000 
-416.500000 -195.500000 671.500000 
-433.500000 -178.500000 671.500000 
-416.500000 -178.500000 671.500000 
-450.500000 -161.500000 654.500000 
-433.500000 -161.500000 654.500000 
-416.500000 -161.500000 654.500000 
-433.500000 -144.500000 654.500000 
-433.500000 -161.500000 671.500000 
-416.500000 -144.500000 654.500000 
-416.500000 -161.500000 671.500000 
-433.500000 -144.500000 671.500000 
-416.500000 -144.500000 671.500000 
-399.500000 -195.500000 654.500000 
-399.500000 -178.500000 654.500000 
-399.500000 -195.500000 671.500000 
-399.500000 -178.500000 671.500000 
-399.500000 -161.500000 654.500000 
-399.500000 -161.500000 671.500000 
-382.500000 -161.500000 671.500000 
-399.500000 -144.500000 671.500000 
-331.500000 -178.500000 671.500000 
-314.500000 -178.500000 671.500000 
-280.500000 -195.500000 671.500000 
-297.500000 -178.500000 671.500000 
-331.500000 -161.500000 671.500000 
-314.500000 -161.500000 671.500000 
-331.500000 -144.500000 671.500000 
-314.500000 -144.500000 671.500000 
-297.500000 -161.500000 671.500000 
-280.500000 -161.500000 671.500000 
-297.500000 -144.500000 671.500000 
-280.500000 -144.500000 671.500000 
-416.500000 -127.500000 654.500000 
-416.500000 -127.500000 671.500000 
-416.500000 -161.500000 688.500000 
-416.500000 -144.500000 688.500000 
-399.500000 -127.500000 671.500000 
-331.500000 -127.500000 671.500000 
-314.500000 -127.500000 671.500000 
-314.500000 -110.500000 671.500000 
-280.500000 -127.500000 671.500000 
-297.500000 -110.500000 671.500000 
-280.500000 -110.500000 671.500000 
-331.500000 -93.500000 671.500000 
-314.500000 -93.500000 671.500000 
-331.500000 -76.500000 671.500000 
-314.500000 -76.500000 671.500000 
-297.500000 -93.500000 671.500000 
-280.500000 -93.500000 671.500000 
-297.500000 -76.500000 671.500000 
-280.500000 -76.500000 671.500000 
-280.500000 -59.500000 671.500000 
-399.500000 -178.500000 688.500000 
-382.500000 -178.500000 688.500000 
-399.500000 -161.500000 688.500000 
-382.500000 -161.500000 688.500000 
-399.500000 -144.500000 688.500000 
-382.500000 -144.500000 688.500000 
-365.500000 -161.500000 688.500000 
-348.500000 -161.500000 688.500000 
-365.500000 -144.500000 688.500000 
-348.500000 -144.500000 688.500000 
-365.500000 -144.500000 705.500000 
-348.500000 -144.500000 705.500000 
-314.500000 -161.500000 688.500000 
-331.500000 -144.500000 688.500000 
-314.500000 -144.500000 688.500000 
-331.500000 -144.500000 705.500000 
-297.500000 -161.500000 688.500000 
-280.500000 -161.500000 688.500000 
-297.500000 -144.500000 688.500000 
-280.500000 -144.500000 688.500000 
-416.500000 -127.500000 688.500000 
-399.500000 -127.500000 688.500000 
-382.500000 -127.500000 688.500000 
-382.500000 -110.500000 688.500000 
-382.500000 -110.500000 705.500000 
-365.500000 -127.500000 688.500000 
-348.500000 -127.500000 688.500000 
-365.500000 -110.500000 688.500000 
-365.500000 -127.500000 705.500000 
-348.500000 -110.500000 688.500000 
-348.500000 -127.500000 705.500000 
-365.500000 -110.500000 705.500000 
-348.500000 -110.500000 705.500000 
-348.500000 -93.500000 688.500000 
-331.500000 -127.500000 688.500000 
-314.500000 -127.500000 688.500000 
-331.500000 -110.500000 688.500000 
-331.500000 -127.500000 705.500000 
-314.500000 -110.500000 688.500000 
-314.500000 -127.500000 705.500000 
-331.500000 -110.500000 705.500000 
-314.500000 -110.500000 705.500000 
-297.500000 -127.500000 688.500000 
-280.500000 -127.500000 688.500000 
-297.500000 -110.500000 688.500000 
-280.500000 -110.500000 688.500000 
-331.500000 -93.500000 688.500000 
-314.500000 -93.500000 688.500000 
-297.500000 -93.500000 688.500000 
-280.500000 -93.500000 688.500000 
-229.500000 -178.500000 671.500000 
-263.500000 -161.500000 671.500000 
-263.500000 -144.500000 671.500000 
-246.500000 -144.500000 671.500000 
-212.500000 -144.500000 654.500000 
-212.500000 -161.500000 671.500000 
-229.500000 -144.500000 671.500000 
-178.500000 -144.500000 620.500000 
-195.500000 -144.500000 637.500000 
-144.500000 -144.500000 620.500000 
-195.500000 -144.500000 654.500000 
-127.500000 -161.500000 603.500000 
-93.500000 -161.500000 603.500000 
-76.500000 -161.500000 603.500000 
-110.500000 -246.500000 637.500000 
-93.500000 -246.500000 620.500000 
-93.500000 -246.500000 637.500000 
-110.500000 -229.500000 637.500000 
-127.500000 -246.500000 654.500000 
-110.500000 -246.500000 654.500000 
-127.500000 -246.500000 671.500000 
-110.500000 -246.500000 671.500000 
-127.500000 -229.500000 654.500000 
-110.500000 -229.500000 654.500000 
-127.500000 -229.500000 671.500000 
-110.500000 -229.500000 671.500000 
-110.500000 -195.500000 637.500000 
-110.500000 -178.500000 637.500000 
-93.500000 -178.500000 620.500000 
-110.500000 -161.500000 620.500000 
-110.500000 -144.500000 620.500000 
-110.500000 -161.500000 637.500000 
-127.500000 -195.500000 654.500000 
-110.500000 -195.500000 654.500000 
-127.500000 -178.500000 654.500000 
-110.500000 -178.500000 654.500000 
-93.500000 -161.500000 620.500000 
-76.500000 -144.500000 637.500000 
-127.500000 -161.500000 654.500000 
-76.500000 -161.500000 654.500000 
-93.500000 -144.500000 654.500000 
-76.500000 -144.500000 654.500000 
-76.500000 -161.500000 671.500000 
-93.500000 -144.500000 671.500000 
-76.500000 -144.500000 671.500000 
-59.500000 -178.500000 637.500000 
-42.500000 -178.500000 637.500000 
-25.500000 -178.500000 620.500000 
-8.500000 -178.500000 620.500000 
-25.500000 -178.500000 637.500000 
-8.500000 -178.500000 637.500000 
-59.500000 -161.500000 620.500000 
-42.500000 -161.500000 620.500000 
-59.500000 -161.500000 637.500000 
-42.500000 -161.500000 637.500000 
-59.500000 -144.500000 637.500000 
-42.500000 -144.500000 637.500000 
-59.500000 -178.500000 654.500000 
-42.500000 -178.500000 654.500000 
-42.500000 -178.500000 671.500000 
-8.500000 -161.500000 637.500000 
-25.500000 -144.500000 637.500000 
-8.500000 -144.500000 637.500000 
-25.500000 -178.500000 654.500000 
-59.500000 -161.500000 654.500000 
-42.500000 -161.500000 654.500000 
-59.500000 -144.500000 654.500000 
-59.500000 -161.500000 671.500000 
-42.500000 -144.500000 654.500000 
-42.500000 -161.500000 671.500000 
-59.500000 -144.500000 671.500000 
-25.500000 -161.500000 654.500000 
-25.500000 -144.500000 654.500000 
-178.500000 -127.500000 603.500000 
-178.500000 -110.500000 603.500000 
-144.500000 -127.500000 586.500000 
-161.500000 -127.500000 603.500000 
-144.500000 -110.500000 586.500000 
-144.500000 -127.500000 603.500000 
-161.500000 -110.500000 603.500000 
-144.500000 -110.500000 603.500000 
-178.500000 -93.500000 603.500000 
-178.500000 -76.500000 603.500000 
-161.500000 -93.500000 586.500000 
-144.500000 -93.500000 586.500000 
-161.500000 -76.500000 586.500000 
-161.500000 -93.500000 603.500000 
-144.500000 -76.500000 586.500000 
-144.500000 -93.500000 603.500000 
-161.500000 -76.500000 603.500000 
-144.500000 -76.500000 603.500000 
-263.500000 -127.500000 671.500000 
-246.500000 -127.500000 671.500000 
-263.500000 -110.500000 671.500000 
-246.500000 -110.500000 671.500000 
-229.500000 -127.500000 654.500000 
-212.500000 -127.500000 654.500000 
-229.500000 -110.500000 654.500000 
-229.500000 -127.500000 671.500000 
-212.500000 -110.500000 654.500000 
-212.500000 -127.500000 671.500000 
-229.500000 -110.500000 671.500000 
-212.500000 -110.500000 671.500000 
-263.500000 -93.500000 671.500000 
-246.500000 -93.500000 671.500000 
-263.500000 -76.500000 671.500000 
-246.500000 -76.500000 671.500000 
-229.500000 -93.500000 654.500000 
-212.500000 -93.500000 654.500000 
-229.500000 -76.500000 654.500000 
-229.500000 -93.500000 671.500000 
-212.500000 -76.500000 654.500000 
-212.500000 -93.500000 671.500000 
-229.500000 -76.500000 671.500000 
-212.500000 -76.500000 671.500000 
-178.500000 -59.500000 603.500000 
-178.500000 -42.500000 603.500000 
-161.500000 -59.500000 586.500000 
-144.500000 -59.500000 586.500000 
-161.500000 -59.500000 603.500000 
-144.500000 -42.500000 586.500000 
-144.500000 -59.500000 603.500000 
-161.500000 -42.500000 603.500000 
-144.500000 -42.500000 603.500000 
-161.500000 -25.500000 586.500000 
-144.500000 -25.500000 586.500000 
-161.500000 -25.500000 603.500000 
-144.500000 -25.500000 603.500000 
-195.500000 -127.500000 620.500000 
-178.500000 -127.500000 620.500000 
-195.500000 -110.500000 620.500000 
-195.500000 -127.500000 637.500000 
-178.500000 -110.500000 620.500000 
-178.500000 -127.500000 637.500000 
-195.500000 -110.500000 637.500000 
-178.500000 -110.500000 637.500000 
-144.500000 -127.500000 620.500000 
-161.500000 -110.500000 620.500000 
-195.500000 -93.500000 620.500000 
-178.500000 -93.500000 620.500000 
-195.500000 -76.500000 620.500000 
-195.500000 -93.500000 637.500000 
-178.500000 -76.500000 620.500000 
-178.500000 -93.500000 637.500000 
-195.500000 -76.500000 637.500000 
-178.500000 -76.500000 637.500000 
-195.500000 -127.500000 654.500000 
-195.500000 -110.500000 654.500000 
-195.500000 -127.500000 671.500000 
