-38.500000 16.500000 500.500000 
-27.500000 16.500000 500.500000 
-16.500000 5.500000 489.500000 
-5.500000 5.500000 489.500000 
-16.500000 16.500000 489.500000 
-16.500000 5.500000 500.500000 
-5.500000 5.500000 500.500000 
-16.500000 16.500000 500.500000 
-38.500000 27.500000 500.500000 
-38.500000 5.500000 511.500000 
-27.500000 5.500000 511.500000 
-38.500000 16.500000 511.500000 
-38.500000 5.500000 522.500000 
-27.500000 16.500000 511.500000 
-27.500000 5.500000 522.500000 
-38.500000 16.500000 522.500000 
-27.500000 16.500000 522.500000 
-5.500000 27.500000 489.500000 
-16.500000 38.500000 489.500000 
-5.500000 38.500000 489.500000 
-16.500000 5.500000 511.500000 
-5.500000 5.500000 511.500000 
-16.500000 16.500000 511.500000 
-16.500000 5.500000 522.500000 
-5.500000 5.500000 522.500000 
-16.500000 16.500000 522.500000 
-38.500000 27.500000 511.500000 
-38.500000 49.500000 489.500000 
-27.500000 49.500000 489.500000 
-16.500000 49.500000 489.500000 
-5.500000 49.500000 489.500000 
-16.500000 49.500000 500.500000 
-5.500000 49.500000 500.500000 
-5.500000 49.500000 511.500000 
-71.500000 5.500000 533.500000 
-82.500000 5.500000 544.500000 
-49.500000 5.500000 533.500000 
-49.500000 16.500000 533.500000 
-49.500000 5.500000 544.500000 
-49.500000 16.500000 544.500000 
-71.500000 5.500000 566.500000 
-71.500000 16.500000 566.500000 
-60.500000 5.500000 555.500000 
-49.500000 5.500000 555.500000 
-60.500000 16.500000 555.500000 
-60.500000 5.500000 566.500000 
-49.500000 16.500000 555.500000 
-49.500000 5.500000 566.500000 
-60.500000 16.500000 566.500000 
-49.500000 16.500000 566.500000 
-49.500000 27.500000 555.500000 
-49.500000 27.500000 566.500000 
-38.500000 5.500000 533.500000 
-27.500000 5.500000 533.500000 
-38.500000 16.500000 533.500000 
-38.500000 5.500000 544.500000 
-27.500000 16.500000 533.500000 
-27.500000 5.500000 544.500000 
-38.500000 16.500000 544.500000 
-27.500000 16.500000 544.500000 
-16.500000 5.500000 533.500000 
-5.500000 5.500000 533.500000 
-16.500000 16.500000 533.500000 
-16.500000 5.500000 544.500000 
-5.500000 5.500000 544.500000 
-16.500000 16.500000 544.500000 
-38.500000 27.500000 533.500000 
-38.500000 27.500000 544.500000 
-38.500000 5.500000 555.500000 
-27.500000 5.500000 555.500000 
-38.500000 16.500000 555.500000 
-38.500000 5.500000 566.500000 
-27.500000 16.500000 555.500000 
-27.500000 5.500000 566.500000 
-38.500000 16.500000 566.500000 
-27.500000 16.500000 566.500000 
-16.500000 5.500000 555.500000 
-5.500000 5.500000 555.500000 
-16.500000 16.500000 555.500000 
-16.500000 5.500000 566.500000 
-5.500000 5.500000 566.500000 
-38.500000 27.500000 555.500000 
-71.500000 5.500000 577.500000 
-71.500000 16.500000 577.500000 
-60.500000 5.500000 577.500000 
-49.500000 5.500000 577.500000 
-60.500000 16.500000 577.500000 
-49.500000 16.500000 577.500000 
-38.500000 5.500000 577.500000 
-27.500000 5.500000 577.500000 
-38.500000 16.500000 577.500000 
-16.500000 5.500000 577.500000 
5.500000 5.500000 16.500000 
5.500000 5.500000 27.500000 
16.500000 5.500000 27.500000 
5.500000 5.500000 38.500000 
16.500000 5.500000 38.500000 
5.500000 5.500000 49.500000 
16.500000 5.500000 49.500000 
16.500000 5.500000 60.500000 
27.500000 5.500000 49.500000 
27.500000 5.500000 60.500000 
38.500000 5.500000 60.500000 
27.500000 5.500000 71.500000 
38.500000 5.500000 71.500000 
27.500000 5.500000 82.500000 
38.500000 5.500000 82.500000 
49.500000 5.500000 71.500000 
49.500000 5.500000 82.500000 
27.500000 5.500000 93.500000 
38.500000 5.500000 93.500000 
38.500000 5.500000 104.500000 
38.500000 5.500000 115.500000 
49.500000 5.500000 93.500000 
60.500000 5.500000 93.500000 
49.500000 5.500000 104.500000 
60.500000 5.500000 104.500000 
71.500000 5.500000 104.500000 
49.500000 5.500000 115.500000 
60.500000 5.500000 115.500000 
49.500000 16.500000 115.500000 
60.500000 16.500000 115.500000 
60.500000 5.500000 126.500000 
60.500000 16.500000 126.500000 
71.500000 5.500000 115.500000 
82.500000 5.500000 115.500000 
71.500000 16.500000 115.500000 
71.500000 5.500000 126.500000 
82.500000 5.500000 126.500000 
71.500000 16.500000 126.500000 
82.500000 16.500000 126.500000 
16.500000 5.500000 148.500000 
16.500000 5.500000 159.500000 
16.500000 5.500000 170.500000 
71.500000 5.500000 137.500000 
82.500000 5.500000 137.500000 
71.500000 16.500000 137.500000 
71.500000 5.500000 148.500000 
82.500000 16.500000 137.500000 
82.500000 5.500000 148.500000 
71.500000 16.500000 148.500000 
82.500000 16.500000 148.500000 
71.500000 5.500000 159.500000 
82.500000 5.500000 159.500000 
71.500000 16.500000 159.500000 
82.500000 16.500000 159.500000 
82.500000 16.500000 170.500000 
71.500000 27.500000 159.500000 
82.500000 27.500000 159.500000 
82.500000 27.500000 170.500000 
82.500000 38.500000 170.500000 
93.500000 5.500000 137.500000 
93.500000 16.500000 137.500000 
93.500000 5.500000 148.500000 
104.500000 5.500000 148.500000 
93.500000 16.500000 148.500000 
104.500000 16.500000 148.500000 
93.500000 5.500000 159.500000 
104.500000 5.500000 159.500000 
93.500000 16.500000 159.500000 
93.500000 5.500000 170.500000 
104.500000 16.500000 159.500000 
104.500000 5.500000 170.500000 
93.500000 16.500000 170.500000 
104.500000 16.500000 170.500000 
115.500000 5.500000 159.500000 
115.500000 16.500000 159.500000 
115.500000 5.500000 170.500000 
126.500000 5.500000 170.500000 
115.500000 16.500000 170.500000 
126.500000 16.500000 170.500000 
93.500000 27.500000 159.500000 
93.500000 27.500000 170.500000 
104.500000 27.500000 170.500000 
93.500000 38.500000 170.500000 
104.500000 38.500000 170.500000 
115.500000 27.500000 170.500000 
126.500000 27.500000 170.500000 
115.500000 38.500000 170.500000 
137.500000 5.500000 170.500000 
5.500000 5.500000 181.500000 
16.500000 5.500000 181.500000 
5.500000 5.500000 192.500000 
16.500000 5.500000 192.500000 
104.500000 5.500000 181.500000 
104.500000 16.500000 181.500000 
115.500000 5.500000 181.500000 
126.500000 5.500000 181.500000 
115.500000 16.500000 181.500000 
126.500000 16.500000 181.500000 
126.500000 5.500000 192.500000 
115.500000 16.500000 192.500000 
126.500000 16.500000 192.500000 
93.500000 27.500000 181.500000 
104.500000 27.500000 181.500000 
104.500000 38.500000 181.500000 
115.500000 27.500000 181.500000 
126.500000 27.500000 181.500000 
115.500000 38.500000 181.500000 
115.500000 27.500000 192.500000 
126.500000 38.500000 181.500000 
126.500000 27.500000 192.500000 
126.500000 38.500000 192.500000 
126.500000 16.500000 203.500000 
126.500000 27.500000 203.500000 
126.500000 38.500000 203.500000 
137.500000 5.500000 181.500000 
148.500000 5.500000 181.500000 
137.500000 16.500000 181.500000 
137.500000 5.500000 192.500000 
148.500000 16.500000 181.500000 
148.500000 5.500000 192.500000 
137.500000 16.500000 192.500000 
148.500000 16.500000 192.500000 
137.500000 27.500000 181.500000 
148.500000 27.500000 181.500000 
137.500000 38.500000 181.500000 
137.500000 27.500000 192.500000 
148.500000 27.500000 192.500000 
137.500000 38.500000 192.500000 
148.500000 38.500000 192.500000 
137.500000 5.500000 203.500000 
148.500000 5.500000 203.500000 
137.500000 16.500000 203.500000 
137.500000 5.500000 214.500000 
148.500000 16.500000 203.500000 
148.500000 5.500000 214.500000 
137.500000 16.500000 214.500000 
148.500000 16.500000 214.500000 
159.500000 5.500000 203.500000 
159.500000 16.500000 203.500000 
159.500000 5.500000 214.500000 
170.500000 5.500000 214.500000 
159.500000 16.500000 214.500000 
170.500000 16.500000 214.500000 
137.500000 27.500000 203.500000 
148.500000 27.500000 203.500000 
137.500000 38.500000 203.500000 
137.500000 27.500000 214.500000 
148.500000 38.500000 203.500000 
148.500000 27.500000 214.500000 
137.500000 38.500000 214.500000 
148.500000 38.500000 214.500000 
159.500000 27.500000 203.500000 
159.500000 38.500000 203.500000 
159.500000 27.500000 214.500000 
170.500000 27.500000 214.500000 
159.500000 38.500000 214.500000 
170.500000 38.500000 214.500000 
126.500000 49.500000 192.500000 
137.500000 49.500000 192.500000 
148.500000 49.500000 192.500000 
137.500000 49.500000 203.500000 
148.500000 49.500000 203.500000 
137.500000 49.500000 214.500000 
148.500000 49.500000 214.500000 
159.500000 49.500000 214.500000 
170.500000 49.500000 214.500000 
148.500000 5.500000 225.500000 
148.500000 16.500000 225.500000 
159.500000 5.500000 225.500000 
170.500000 5.500000 225.500000 
159.500000 16.500000 225.500000 
170.500000 16.500000 225.500000 
148.500000 27.500000 225.500000 
148.500000 38.500000 225.500000 
159.500000 27.500000 225.500000 
170.500000 27.500000 225.500000 
159.500000 38.500000 225.500000 
170.500000 38.500000 225.500000 
170.500000 27.500000 236.500000 
159.500000 38.500000 236.500000 
170.500000 38.500000 236.500000 
148.500000 49.500000 225.500000 
148.500000 49.500000 236.500000 
159.500000 49.500000 225.500000 
170.500000 49.500000 225.500000 
159.500000 49.500000 236.500000 
170.500000 49.500000 236.500000 
159.500000 60.500000 236.500000 
170.500000 60.500000 236.500000 
159.500000 71.500000 236.500000 
170.500000 71.500000 236.500000 
170.500000 82.500000 236.500000 
5.500000 5.500000 291.500000 
16.500000 5.500000 291.500000 
5.500000 5.500000 302.500000 
16.500000 5.500000 302.500000 
27.500000 5.500000 291.500000 
27.500000 5.500000 302.500000 
38.500000 5.500000 302.500000 
5.500000 5.500000 313.500000 
16.500000 5.500000 313.500000 
5.500000 16.500000 313.500000 
5.500000 5.500000 324.500000 
16.500000 16.500000 313.500000 
16.500000 5.500000 324.500000 
5.500000 16.500000 324.500000 
16.500000 16.500000 324.500000 
27.500000 5.500000 313.500000 
38.500000 5.500000 313.500000 
27.500000 16.500000 313.500000 
27.500000 5.500000 324.500000 
38.500000 16.500000 313.500000 
38.500000 5.500000 324.500000 
27.500000 16.500000 324.500000 
38.500000 16.500000 324.500000 
16.500000 5.500000 335.500000 
5.500000 5.500000 346.500000 
16.500000 16.500000 335.500000 
16.500000 5.500000 346.500000 
5.500000 16.500000 346.500000 
16.500000 16.500000 346.500000 
27.500000 5.500000 335.500000 
38.500000 5.500000 335.500000 
27.500000 16.500000 335.500000 
27.500000 5.500000 346.500000 
38.500000 16.500000 335.500000 
38.500000 5.500000 346.500000 
27.500000 16.500000 346.500000 
38.500000 16.500000 346.500000 
49.500000 5.500000 324.500000 
49.500000 5.500000 335.500000 
49.500000 16.500000 335.500000 
49.500000 5.500000 346.500000 
60.500000 5.500000 346.500000 
49.500000 16.500000 346.500000 
60.500000 16.500000 346.500000 
181.500000 27.500000 214.500000 
181.500000 38.500000 214.500000 
181.500000 5.500000 225.500000 
192.500000 5.500000 225.500000 
181.500000 16.500000 225.500000 
192.500000 16.500000 225.500000 
192.500000 16.500000 236.500000 
203.500000 5.500000 225.500000 
203.500000 16.500000 225.500000 
203.500000 16.500000 236.500000 
214.500000 16.500000 236.500000 
181.500000 27.500000 225.500000 
192.500000 27.500000 225.500000 
181.500000 38.500000 225.500000 
181.500000 27.500000 236.500000 
192.500000 38.500000 225.500000 
192.500000 27.500000 236.500000 
181.500000 38.500000 236.500000 
192.500000 38.500000 236.500000 
203.500000 27.500000 225.500000 
203.500000 38.500000 225.500000 
203.500000 27.500000 236.500000 
214.500000 27.500000 236.500000 
203.500000 38.500000 236.500000 
214.500000 38.500000 236.500000 
203.500000 16.500000 247.500000 
214.500000 16.500000 247.500000 
214.500000 16.500000 258.500000 
192.500000 38.500000 247.500000 
203.500000 27.500000 247.500000 
214.500000 27.500000 247.500000 
203.500000 38.500000 247.500000 
214.500000 38.500000 247.500000 
214.500000 27.500000 258.500000 
214.500000 38.500000 258.500000 
225.500000 27.500000 236.500000 
225.500000 38.500000 236.500000 
225.500000 16.500000 247.500000 
236.500000 16.500000 247.500000 
225.500000 16.500000 258.500000 
236.500000 16.500000 258.500000 
247.500000 16.500000 247.500000 
258.500000 16.500000 247.500000 
247.500000 16.500000 258.500000 
258.500000 16.500000 258.500000 
225.500000 27.500000 247.500000 
236.500000 27.500000 247.500000 
225.500000 38.500000 247.500000 
225.500000 27.500000 258.500000 
236.500000 38.500000 247.500000 
236.500000 27.500000 258.500000 
225.500000 38.500000 258.500000 
236.500000 38.500000 258.500000 
247.500000 27.500000 247.500000 
258.500000 27.500000 247.500000 
247.500000 38.500000 247.500000 
247.500000 27.500000 258.500000 
258.500000 38.500000 247.500000 
258.500000 27.500000 258.500000 
247.500000 38.500000 258.500000 
258.500000 38.500000 258.500000 
181.500000 49.500000 225.500000 
192.500000 49.500000 225.500000 
181.500000 49.500000 236.500000 
192.500000 49.500000 236.500000 
181.500000 60.500000 236.500000 
192.500000 60.500000 236.500000 
203.500000 49.500000 236.500000 
214.500000 49.500000 236.500000 
203.500000 60.500000 236.500000 
214.500000 60.500000 236.500000 
181.500000 71.500000 236.500000 
192.500000 71.500000 236.500000 
181.500000 82.500000 236.500000 
192.500000 82.500000 236.500000 
192.500000 49.500000 247.500000 
192.500000 60.500000 247.500000 
203.500000 71.500000 236.500000 
214.500000 71.500000 236.500000 
203.500000 82.500000 236.500000 
214.500000 82.500000 236.500000 
203.500000 49.500000 247.500000 
214.500000 49.500000 247.500000 
203.500000 60.500000 247.500000 
214.500000 60.500000 247.500000 
214.500000 49.500000 258.500000 
214.500000 60.500000 258.500000 
192.500000 71.500000 247.500000 
203.500000 71.500000 247.500000 
214.500000 71.500000 247.500000 
203.500000 82.500000 247.500000 
214.500000 82.500000 247.500000 
225.500000 49.500000 236.500000 
225.500000 60.500000 236.500000 
225.500000 71.500000 236.500000 
225.500000 82.500000 236.500000 
225.500000 49.500000 247.500000 
236.500000 49.500000 247.500000 
225.500000 60.500000 247.500000 
225.500000 49.500000 258.500000 
236.500000 60.500000 247.500000 
236.500000 49.500000 258.500000 
225.500000 60.500000 258.500000 
236.500000 60.500000 258.500000 
247.500000 49.500000 247.500000 
258.500000 49.500000 247.500000 
247.500000 60.500000 247.500000 
247.500000 49.500000 258.500000 
258.500000 49.500000 258.500000 
247.500000 60.500000 258.500000 
258.500000 60.500000 258.500000 
225.500000 71.500000 247.500000 
236.500000 71.500000 247.500000 
225.500000 82.500000 247.500000 
225.500000 71.500000 258.500000 
236.500000 82.500000 247.500000 
236.500000 71.500000 258.500000 
225.500000 82.500000 258.500000 
236.500000 82.500000 258.500000 
247.500000 71.500000 247.500000 
247.500000 82.500000 247.500000 
247.500000 71.500000 258.500000 
258.500000 71.500000 258.500000 
247.500000 82.500000 258.500000 
258.500000 82.500000 258.500000 
269.500000 16.500000 258.500000 
269.500000 27.500000 258.500000 
269.500000 38.500000 258.500000 
280.500000 38.500000 258.500000 
302.500000 38.500000 258.500000 
313.500000 38.500000 258.500000 
269.500000 49.500000 258.500000 
280.500000 49.500000 258.500000 
269.500000 60.500000 258.500000 
280.500000 60.500000 258.500000 
302.500000 49.500000 258.500000 
302.500000 60.500000 258.500000 
269.500000 71.500000 258.500000 
280.500000 71.500000 258.500000 
269.500000 82.500000 258.500000 
280.500000 82.500000 258.500000 
302.500000 71.500000 258.500000 
302.500000 82.500000 258.500000 
313.500000 49.500000 258.500000 
324.500000 49.500000 258.500000 
313.500000 60.500000 258.500000 
324.500000 60.500000 258.500000 
335.500000 49.500000 258.500000 
335.500000 60.500000 258.500000 
313.500000 71.500000 258.500000 
313.500000 82.500000 258.500000 
236.500000 93.500000 258.500000 
236.500000 104.500000 258.500000 
247.500000 93.500000 258.500000 
258.500000 93.500000 258.500000 
247.500000 104.500000 258.500000 
258.500000 49.500000 269.500000 
247.500000 60.500000 269.500000 
258.500000 60.500000 269.500000 
236.500000 71.500000 269.500000 
247.500000 71.500000 269.500000 
258.500000 71.500000 269.500000 
247.500000 82.500000 269.500000 
258.500000 82.500000 269.500000 
258.500000 82.500000 280.500000 
269.500000 93.500000 258.500000 
302.500000 126.500000 258.500000 
335.500000 104.500000 258.500000 
313.500000 115.500000 258.500000 
324.500000 115.500000 258.500000 
313.500000 126.500000 258.500000 
324.500000 126.500000 258.500000 
335.500000 115.500000 258.500000 
335.500000 126.500000 258.500000 
302.500000 137.500000 258.500000 
313.500000 137.500000 258.500000 
324.500000 137.500000 258.500000 
313.500000 148.500000 258.500000 
324.500000 148.500000 258.500000 
335.500000 137.500000 258.500000 
324.500000 159.500000 258.500000 
269.500000 38.500000 269.500000 
280.500000 38.500000 269.500000 
291.500000 38.500000 269.500000 
302.500000 38.500000 269.500000 
313.500000 38.500000 269.500000 
269.500000 49.500000 269.500000 
280.500000 49.500000 269.500000 
269.500000 60.500000 269.500000 
280.500000 60.500000 269.500000 
291.500000 49.500000 269.500000 
302.500000 49.500000 269.500000 
291.500000 60.500000 269.500000 
302.500000 60.500000 269.500000 
269.500000 71.500000 269.500000 
280.500000 71.500000 269.500000 
269.500000 82.500000 269.500000 
280.500000 82.500000 269.500000 
280.500000 71.500000 280.500000 
269.500000 82.500000 280.500000 
280.500000 82.500000 280.500000 
291.500000 71.500000 269.500000 
302.500000 71.500000 269.500000 
291.500000 82.500000 269.500000 
291.500000 71.500000 280.500000 
302.500000 82.500000 269.500000 
302.500000 71.500000 280.500000 
291.500000 82.500000 280.500000 
302.500000 82.500000 280.500000 
313.500000 49.500000 269.500000 
324.500000 49.500000 269.500000 
313.500000 60.500000 269.500000 
324.500000 60.500000 269.500000 
324.500000 49.500000 280.500000 
335.500000 49.500000 269.500000 
335.500000 60.500000 269.500000 
335.500000 49.500000 280.500000 
346.500000 60.500000 269.500000 
346.500000 60.500000 280.500000 
313.500000 71.500000 269.500000 
324.500000 71.500000 269.500000 
313.500000 82.500000 269.500000 
313.500000 71.500000 280.500000 
324.500000 82.500000 269.500000 
324.500000 71.500000 280.500000 
313.500000 82.500000 280.500000 
324.500000 82.500000 280.500000 
335.500000 71.500000 269.500000 
346.500000 71.500000 269.500000 
335.500000 82.500000 269.500000 
335.500000 71.500000 280.500000 
346.500000 82.500000 269.500000 
346.500000 71.500000 280.500000 
335.500000 82.500000 280.500000 
346.500000 82.500000 280.500000 
247.500000 93.500000 269.500000 
258.500000 93.500000 269.500000 
247.500000 104.500000 269.500000 
258.500000 104.500000 269.500000 
258.500000 93.500000 280.500000 
258.500000 104.500000 280.500000 
258.500000 115.500000 269.500000 
258.500000 126.500000 269.500000 
258.500000 115.500000 280.500000 
269.500000 93.500000 269.500000 
280.500000 93.500000 269.500000 
269.500000 104.500000 269.500000 
269.500000 93.500000 280.500000 
280.500000 104.500000 269.500000 
280.500000 93.500000 280.500000 
269.500000 104.500000 280.500000 
280.500000 104.500000 280.500000 
291.500000 93.500000 269.500000 
302.500000 93.500000 269.500000 
291.500000 104.500000 269.500000 
291.500000 93.500000 280.500000 
302.500000 104.500000 269.500000 
302.500000 93.500000 280.500000 
291.500000 104.500000 280.500000 
302.500000 104.500000 280.500000 
269.500000 115.500000 269.500000 
280.500000 115.500000 269.500000 
269.500000 126.500000 269.500000 
269.500000 115.500000 280.500000 
280.500000 126.500000 269.500000 
280.500000 115.500000 280.500000 
269.500000 126.500000 280.500000 
280.500000 126.500000 280.500000 
291.500000 115.500000 269.500000 
302.500000 115.500000 269.500000 
291.500000 126.500000 269.500000 
291.500000 115.500000 280.500000 
302.500000 126.500000 269.500000 
302.500000 115.500000 280.500000 
291.500000 126.500000 280.500000 
302.500000 126.500000 280.500000 
313.500000 93.500000 269.500000 
324.500000 93.500000 269.500000 
313.500000 104.500000 269.500000 
313.500000 93.500000 280.500000 
324.500000 104.500000 269.500000 
324.500000 93.500000 280.500000 
313.500000 104.500000 280.500000 
324.500000 104.500000 280.500000 
335.500000 93.500000 269.500000 
346.500000 93.500000 269.500000 
335.500000 104.500000 269.500000 
335.500000 93.500000 280.500000 
346.500000 104.500000 269.500000 
346.500000 93.500000 280.500000 
335.500000 104.500000 280.500000 
346.500000 104.500000 280.500000 
313.500000 115.500000 269.500000 
324.500000 115.500000 269.500000 
313.500000 126.500000 269.500000 
313.500000 115.500000 280.500000 
324.500000 126.500000 269.500000 
324.500000 115.500000 280.500000 
313.500000 126.500000 280.500000 
324.500000 126.500000 280.500000 
335.500000 115.500000 269.500000 
346.500000 115.500000 269.500000 
335.500000 126.500000 269.500000 
335.500000 115.500000 280.500000 
346.500000 126.500000 269.500000 
346.500000 115.500000 280.500000 
335.500000 126.500000 280.500000 
346.500000 126.500000 280.500000 
269.500000 137.500000 269.500000 
280.500000 137.500000 269.500000 
280.500000 148.500000 269.500000 
280.500000 137.500000 280.500000 
280.500000 148.500000 280.500000 
291.500000 137.500000 269.500000 
302.500000 137.500000 269.500000 
291.500000 148.500000 269.500000 
291.500000 137.500000 280.500000 
302.500000 148.500000 269.500000 
302.500000 137.500000 280.500000 
302.500000 148.500000 280.500000 
280.500000 159.500000 269.500000 
291.500000 159.500000 269.500000 
302.500000 159.500000 269.500000 
291.500000 159.500000 280.500000 
302.500000 159.500000 280.500000 
313.500000 137.500000 269.500000 
324.500000 137.500000 269.500000 
313.500000 148.500000 269.500000 
313.500000 137.500000 280.500000 
324.500000 148.500000 269.500000 
324.500000 137.500000 280.500000 
324.500000 148.500000 280.500000 
335.500000 137.500000 269.500000 
346.500000 137.500000 269.500000 
335.500000 148.500000 269.500000 
335.500000 137.500000 280.500000 
346.500000 148.500000 269.500000 
346.500000 137.500000 280.500000 
335.500000 148.500000 280.500000 
346.500000 148.500000 280.500000 
313.500000 159.500000 269.500000 
324.500000 159.500000 269.500000 
313.500000 159.500000 280.500000 
324.500000 159.500000 280.500000 
335.500000 159.500000 269.500000 
346.500000 159.500000 269.500000 
335.500000 159.500000 280.500000 
500.500000 170.500000 159.500000 
500.500000 170.500000 170.500000 
511.500000 170.500000 159.500000 
511.500000 170.500000 170.500000 
511.500000 192.500000 126.500000 
500.500000 181.500000 148.500000 
500.500000 192.500000 148.500000 
511.500000 181.500000 137.500000 
522.500000 181.500000 137.500000 
511.500000 192.500000 137.500000 
511.500000 181.500000 148.500000 
522.500000 192.500000 137.500000 
522.500000 181.500000 148.500000 
511.500000 192.500000 148.500000 
522.500000 192.500000 148.500000 
500.500000 181.500000 159.500000 
489.500000 181.500000 170.500000 
500.500000 192.500000 159.500000 
500.500000 181.500000 170.500000 
500.500000 192.500000 170.500000 
511.500000 181.500000 159.500000 
511.500000 192.500000 159.500000 
511.500000 181.500000 170.500000 
511.500000 192.500000 170.500000 
412.500000 104.500000 258.500000 
423.500000 104.500000 258.500000 
412.500000 115.500000 247.500000 
401.500000 115.500000 258.500000 
412.500000 126.500000 247.500000 
412.500000 115.500000 258.500000 
401.500000 126.500000 258.500000 
412.500000 126.500000 258.500000 
423.500000 115.500000 247.500000 
434.500000 115.500000 247.500000 
423.500000 126.500000 247.500000 
423.500000 115.500000 258.500000 
434.500000 126.500000 247.500000 
434.500000 115.500000 258.500000 
423.500000 126.500000 258.500000 
434.500000 126.500000 258.500000 
390.500000 137.500000 258.500000 
390.500000 148.500000 258.500000 
412.500000 137.500000 247.500000 
401.500000 137.500000 258.500000 
412.500000 148.500000 247.500000 
412.500000 137.500000 258.500000 
401.500000 148.500000 258.500000 
412.500000 148.500000 258.500000 
423.500000 137.500000 247.500000 
434.500000 137.500000 247.500000 
423.500000 148.500000 247.500000 
423.500000 137.500000 258.500000 
434.500000 148.500000 247.500000 
434.500000 137.500000 258.500000 
423.500000 148.500000 258.500000 
434.500000 148.500000 258.500000 
401.500000 159.500000 258.500000 
357.500000 60.500000 269.500000 
357.500000 71.500000 269.500000 
368.500000 71.500000 269.500000 
357.500000 82.500000 269.500000 
357.500000 71.500000 280.500000 
368.500000 82.500000 269.500000 
368.500000 71.500000 280.500000 
357.500000 82.500000 280.500000 
368.500000 82.500000 280.500000 
379.500000 82.500000 269.500000 
390.500000 82.500000 269.500000 
379.500000 82.500000 280.500000 
478.500000 170.500000 192.500000 
456.500000 170.500000 203.500000 
456.500000 159.500000 214.500000 
445.500000 170.500000 214.500000 
456.500000 170.500000 214.500000 
467.500000 159.500000 203.500000 
478.500000 159.500000 203.500000 
467.500000 170.500000 203.500000 
467.500000 159.500000 214.500000 
478.500000 170.500000 203.500000 
478.500000 159.500000 214.500000 
467.500000 170.500000 214.500000 
478.500000 170.500000 214.500000 
445.500000 115.500000 247.500000 
445.500000 126.500000 247.500000 
456.500000 126.500000 247.500000 
445.500000 126.500000 258.500000 
489.500000 159.500000 181.500000 
500.500000 159.500000 181.500000 
489.500000 170.500000 181.500000 
489.500000 159.500000 192.500000 
500.500000 170.500000 181.500000 
489.500000 170.500000 192.500000 
500.500000 170.500000 192.500000 
489.500000 159.500000 203.500000 
489.500000 170.500000 203.500000 
489.500000 159.500000 214.500000 
489.500000 170.500000 214.500000 
445.500000 148.500000 236.500000 
456.500000 148.500000 236.500000 
478.500000 148.500000 225.500000 
467.500000 148.500000 236.500000 
478.500000 148.500000 236.500000 
456.500000 159.500000 225.500000 
445.500000 137.500000 247.500000 
456.500000 137.500000 247.500000 
445.500000 148.500000 247.500000 
445.500000 137.500000 258.500000 
456.500000 148.500000 247.500000 
445.500000 148.500000 258.500000 
467.500000 159.500000 225.500000 
478.500000 159.500000 225.500000 
467.500000 137.500000 247.500000 
478.500000 137.500000 247.500000 
467.500000 148.500000 247.500000 
478.500000 148.500000 247.500000 
489.500000 148.500000 225.500000 
489.500000 148.500000 236.500000 
489.500000 159.500000 225.500000 
357.500000 93.500000 269.500000 
368.500000 93.500000 269.500000 
357.500000 104.500000 269.500000 
357.500000 93.500000 280.500000 
368.500000 104.500000 269.500000 
368.500000 93.500000 280.500000 
357.500000 104.500000 280.500000 
368.500000 104.500000 280.500000 
379.500000 93.500000 269.500000 
390.500000 93.500000 269.500000 
379.500000 104.500000 269.500000 
379.500000 93.500000 280.500000 
390.500000 104.500000 269.500000 
390.500000 93.500000 280.500000 
379.500000 104.500000 280.500000 
390.500000 104.500000 280.500000 
357.500000 115.500000 269.500000 
368.500000 115.500000 269.500000 
357.500000 126.500000 269.500000 
357.500000 115.500000 280.500000 
368.500000 126.500000 269.500000 
368.500000 115.500000 280.500000 
357.500000 126.500000 280.500000 
368.500000 126.500000 280.500000 
379.500000 115.500000 269.500000 
390.500000 115.500000 269.500000 
379.500000 126.500000 269.500000 
379.500000 115.500000 280.500000 
390.500000 126.500000 269.500000 
390.500000 115.500000 280.500000 
379.500000 126.500000 280.500000 
390.500000 126.500000 280.500000 
401.500000 93.500000 269.500000 
412.500000 93.500000 269.500000 
401.500000 104.500000 269.500000 
412.500000 104.500000 269.500000 
401.500000 104.500000 280.500000 
401.500000 115.500000 269.500000 
412.500000 115.500000 269.500000 
401.500000 126.500000 269.500000 
401.500000 115.500000 280.500000 
412.500000 126.500000 269.500000 
401.500000 126.500000 280.500000 
423.500000 115.500000 269.500000 
423.500000 126.500000 269.500000 
357.500000 137.500000 269.500000 
368.500000 137.500000 269.500000 
357.500000 148.500000 269.500000 
357.500000 137.500000 280.500000 
368.500000 148.500000 269.500000 
368.500000 137.500000 280.500000 
357.500000 148.500000 280.500000 
368.500000 148.500000 280.500000 
379.500000 137.500000 269.500000 
390.500000 137.500000 269.500000 
379.500000 148.500000 269.500000 
379.500000 137.500000 280.500000 
390.500000 148.500000 269.500000 
390.500000 137.500000 280.500000 
379.500000 148.500000 280.500000 
390.500000 148.500000 280.500000 
357.500000 159.500000 269.500000 
368.500000 159.500000 269.500000 
379.500000 159.500000 269.500000 
390.500000 159.500000 269.500000 
401.500000 137.500000 269.500000 
412.500000 137.500000 269.500000 
401.500000 148.500000 269.500000 
401.500000 137.500000 280.500000 
412.500000 148.500000 269.500000 
401.500000 148.500000 280.500000 
423.500000 137.500000 269.500000 
423.500000 148.500000 269.500000 
401.500000 159.500000 269.500000 
533.500000 192.500000 126.500000 
533.500000 181.500000 137.500000 
533.500000 192.500000 137.500000 
478.500000 181.500000 192.500000 
478.500000 192.500000 192.500000 
456.500000 181.500000 203.500000 
467.500000 181.500000 203.500000 
478.500000 181.500000 203.500000 
489.500000 181.500000 181.500000 
500.500000 181.500000 181.500000 
489.500000 181.500000 192.500000 
500.500000 192.500000 181.500000 
500.500000 181.500000 192.500000 
489.500000 192.500000 192.500000 
500.500000 192.500000 192.500000 
489.500000 181.500000 203.500000 
5.500000 5.500000 357.500000 
16.500000 5.500000 357.500000 
5.500000 16.500000 357.500000 
5.500000 5.500000 368.500000 
16.500000 16.500000 357.500000 
16.500000 5.500000 368.500000 
5.500000 16.500000 368.500000 
16.500000 16.500000 368.500000 
27.500000 5.500000 357.500000 
38.500000 5.500000 357.500000 
27.500000 16.500000 357.500000 
27.500000 5.500000 368.500000 
38.500000 16.500000 357.500000 
27.500000 16.500000 368.500000 
38.500000 16.500000 368.500000 
16.500000 27.500000 357.500000 
5.500000 27.500000 368.500000 
16.500000 27.500000 368.500000 
5.500000 5.500000 379.500000 
16.500000 5.500000 379.500000 
5.500000 16.500000 379.500000 
5.500000 5.500000 390.500000 
16.500000 16.500000 379.500000 
16.500000 5.500000 390.500000 
5.500000 16.500000 390.500000 
16.500000 16.500000 390.500000 
27.500000 27.500000 357.500000 
38.500000 27.500000 357.500000 
27.500000 27.500000 368.500000 
38.500000 27.500000 368.500000 
27.500000 5.500000 379.500000 
38.500000 5.500000 379.500000 
27.500000 16.500000 379.500000 
27.500000 5.500000 390.500000 
38.500000 5.500000 390.500000 
27.500000 16.500000 390.500000 
5.500000 27.500000 390.500000 
16.500000 27.500000 390.500000 
27.500000 27.500000 390.500000 
49.500000 5.500000 357.500000 
60.500000 5.500000 357.500000 
49.500000 16.500000 357.500000 
49.500000 5.500000 368.500000 
60.500000 16.500000 357.500000 
60.500000 5.500000 368.500000 
49.500000 16.500000 368.500000 
60.500000 16.500000 368.500000 
71.500000 5.500000 357.500000 
82.500000 5.500000 357.500000 
71.500000 16.500000 357.500000 
71.500000 5.500000 368.500000 
82.500000 5.500000 368.500000 
71.500000 16.500000 368.500000 
82.500000 16.500000 368.500000 
49.500000 27.500000 357.500000 
60.500000 27.500000 357.500000 
60.500000 27.500000 368.500000 
60.500000 5.500000 379.500000 
60.500000 16.500000 379.500000 
60.500000 5.500000 390.500000 
49.500000 16.500000 390.500000 
60.500000 16.500000 390.500000 
71.500000 27.500000 357.500000 
71.500000 27.500000 368.500000 
82.500000 27.500000 368.500000 
71.500000 5.500000 379.500000 
82.500000 5.500000 379.500000 
71.500000 16.500000 379.500000 
71.500000 5.500000 390.500000 
82.500000 16.500000 379.500000 
82.500000 5.500000 390.500000 
71.500000 16.500000 390.500000 
82.500000 16.500000 390.500000 
49.500000 27.500000 390.500000 
60.500000 27.500000 390.500000 
82.500000 27.500000 379.500000 
71.500000 27.500000 390.500000 
82.500000 27.500000 390.500000 
5.500000 5.500000 401.500000 
16.500000 5.500000 401.500000 
5.500000 16.500000 401.500000 
5.500000 5.500000 412.500000 
16.500000 16.500000 401.500000 
16.500000 5.500000 412.500000 
5.500000 16.500000 412.500000 
16.500000 16.500000 412.500000 
27.500000 5.500000 401.500000 
38.500000 5.500000 401.500000 
27.500000 16.500000 401.500000 
27.500000 5.500000 412.500000 
38.500000 16.500000 401.500000 
38.500000 5.500000 412.500000 
27.500000 16.500000 412.500000 
38.500000 16.500000 412.500000 
5.500000 27.500000 401.500000 
16.500000 27.500000 401.500000 
5.500000 27.500000 412.500000 
16.500000 27.500000 412.500000 
5.500000 5.500000 423.500000 
16.500000 5.500000 423.500000 
5.500000 16.500000 423.500000 
5.500000 5.500000 434.500000 
16.500000 16.500000 423.500000 
16.500000 5.500000 434.500000 
5.500000 16.500000 434.500000 
16.500000 16.500000 434.500000 
27.500000 27.500000 401.500000 
27.500000 27.500000 412.500000 
38.500000 27.500000 412.500000 
27.500000 5.500000 423.500000 
38.500000 5.500000 423.500000 
27.500000 16.500000 423.500000 
27.500000 5.500000 434.500000 
38.500000 16.500000 423.500000 
38.500000 5.500000 434.500000 
27.500000 16.500000 434.500000 
38.500000 16.500000 434.500000 
5.500000 27.500000 423.500000 
16.500000 27.500000 423.500000 
5.500000 38.500000 423.500000 
5.500000 27.500000 434.500000 
16.500000 38.500000 423.500000 
16.500000 27.500000 434.500000 
5.500000 38.500000 434.500000 
16.500000 38.500000 434.500000 
27.500000 27.500000 423.500000 
38.500000 27.500000 423.500000 
27.500000 38.500000 423.500000 
27.500000 27.500000 434.500000 
38.500000 27.500000 434.500000 
27.500000 38.500000 434.500000 
38.500000 38.500000 434.500000 
49.500000 5.500000 412.500000 
71.500000 5.500000 401.500000 
82.500000 5.500000 401.500000 
71.500000 16.500000 401.500000 
71.500000 5.500000 412.500000 
82.500000 16.500000 401.500000 
82.500000 5.500000 412.500000 
71.500000 16.500000 412.500000 
82.500000 16.500000 412.500000 
49.500000 27.500000 401.500000 
49.500000 38.500000 412.500000 
49.500000 5.500000 423.500000 
49.500000 5.500000 434.500000 
60.500000 5.500000 434.500000 
49.500000 16.500000 434.500000 
71.500000 27.500000 401.500000 
82.500000 27.500000 401.500000 
71.500000 27.500000 412.500000 
82.500000 27.500000 412.500000 
71.500000 38.500000 412.500000 
82.500000 38.500000 412.500000 
82.500000 5.500000 423.500000 
82.500000 16.500000 423.500000 
82.500000 5.500000 434.500000 
82.500000 16.500000 434.500000 
60.500000 38.500000 423.500000 
82.500000 27.500000 423.500000 
82.500000 38.500000 423.500000 
82.500000 27.500000 434.500000 
82.500000 38.500000 434.500000 
93.500000 5.500000 368.500000 
93.500000 5.500000 379.500000 
104.500000 5.500000 379.500000 
93.500000 16.500000 379.500000 
93.500000 5.500000 390.500000 
104.500000 5.500000 390.500000 
93.500000 16.500000 390.500000 
93.500000 27.500000 379.500000 
93.500000 27.500000 390.500000 
93.500000 5.500000 401.500000 
104.500000 5.500000 401.500000 
93.500000 16.500000 401.500000 
93.500000 5.500000 412.500000 
104.500000 16.500000 401.500000 
104.500000 5.500000 412.500000 
93.500000 16.500000 412.500000 
104.500000 16.500000 412.500000 
93.500000 27.500000 401.500000 
93.500000 27.500000 412.500000 
93.500000 38.500000 412.500000 
93.500000 5.500000 423.500000 
104.500000 5.500000 423.500000 
93.500000 16.500000 423.500000 
93.500000 5.500000 434.500000 
104.500000 16.500000 423.500000 
104.500000 5.500000 434.500000 
93.500000 16.500000 434.500000 
104.500000 16.500000 434.500000 
115.500000 5.500000 434.500000 
115.500000 16.500000 434.500000 
93.500000 27.500000 423.500000 
93.500000 38.500000 423.500000 
93.500000 27.500000 434.500000 
104.500000 27.500000 434.500000 
93.500000 38.500000 434.500000 
5.500000 5.500000 445.500000 
16.500000 5.500000 445.500000 
5.500000 16.500000 445.500000 
5.500000 5.500000 456.500000 
16.500000 16.500000 445.500000 
16.500000 5.500000 456.500000 
5.500000 16.500000 456.500000 
16.500000 16.500000 456.500000 
27.500000 5.500000 445.500000 
38.500000 5.500000 445.500000 
27.500000 16.500000 445.500000 
27.500000 5.500000 456.500000 
38.500000 16.500000 445.500000 
38.500000 5.500000 456.500000 
27.500000 16.500000 456.500000 
38.500000 16.500000 456.500000 
5.500000 27.500000 445.500000 
16.500000 27.500000 445.500000 
5.500000 38.500000 445.500000 
5.500000 27.500000 456.500000 
16.500000 38.500000 445.500000 
16.500000 27.500000 456.500000 
5.500000 38.500000 456.500000 
16.500000 38.500000 456.500000 
5.500000 5.500000 467.500000 
16.500000 5.500000 467.500000 
5.500000 16.500000 467.500000 
5.500000 5.500000 478.500000 
16.500000 16.500000 467.500000 
16.500000 5.500000 478.500000 
5.500000 16.500000 478.500000 
16.500000 16.500000 478.500000 
27.500000 27.500000 445.500000 
38.500000 27.500000 445.500000 
27.500000 38.500000 445.500000 
27.500000 27.500000 456.500000 
38.500000 38.500000 445.500000 
38.500000 27.500000 456.500000 
27.500000 38.500000 456.500000 
38.500000 5.500000 467.500000 
27.500000 16.500000 467.500000 
38.500000 16.500000 467.500000 
5.500000 27.500000 467.500000 
5.500000 27.500000 478.500000 
16.500000 38.500000 467.500000 
27.500000 27.500000 467.500000 
38.500000 27.500000 467.500000 
27.500000 38.500000 467.500000 
38.500000 38.500000 467.500000 
38.500000 27.500000 478.500000 
38.500000 38.500000 478.500000 
49.500000 5.500000 445.500000 
60.500000 5.500000 445.500000 
49.500000 16.500000 445.500000 
49.500000 5.500000 456.500000 
60.500000 5.500000 456.500000 
49.500000 16.500000 456.500000 
60.500000 16.500000 456.500000 
82.500000 16.500000 445.500000 
49.500000 27.500000 445.500000 
49.500000 27.500000 456.500000 
49.500000 38.500000 456.500000 
49.500000 5.500000 467.500000 
60.500000 5.500000 467.500000 
49.500000 16.500000 467.500000 
49.500000 5.500000 478.500000 
60.500000 16.500000 467.500000 
60.500000 5.500000 478.500000 
49.500000 16.500000 478.500000 
60.500000 16.500000 478.500000 
82.500000 27.500000 445.500000 
82.500000 38.500000 445.500000 
82.500000 27.500000 456.500000 
82.500000 38.500000 456.500000 
71.500000 5.500000 467.500000 
71.500000 16.500000 467.500000 
71.500000 5.500000 478.500000 
82.500000 5.500000 478.500000 
71.500000 16.500000 478.500000 
49.500000 27.500000 467.500000 
60.500000 27.500000 467.500000 
49.500000 38.500000 467.500000 
49.500000 27.500000 478.500000 
60.500000 27.500000 478.500000 
49.500000 38.500000 478.500000 
60.500000 38.500000 478.500000 
16.500000 49.500000 456.500000 
27.500000 49.500000 456.500000 
38.500000 49.500000 456.500000 
16.500000 49.500000 467.500000 
27.500000 49.500000 467.500000 
38.500000 49.500000 467.500000 
27.500000 49.500000 478.500000 
38.500000 49.500000 478.500000 
16.500000 16.500000 489.500000 
5.500000 27.500000 489.500000 
5.500000 38.500000 500.500000 
38.500000 38.500000 489.500000 
38.500000 38.500000 500.500000 
71.500000 49.500000 456.500000 
82.500000 49.500000 456.500000 
49.500000 49.500000 467.500000 
49.500000 49.500000 478.500000 
60.500000 5.500000 489.500000 
49.500000 16.500000 489.500000 
60.500000 16.500000 489.500000 
60.500000 5.500000 500.500000 
60.500000 16.500000 500.500000 
71.500000 5.500000 489.500000 
82.500000 5.500000 489.500000 
71.500000 16.500000 489.500000 
71.500000 5.500000 500.500000 
82.500000 16.500000 489.500000 
82.500000 5.500000 500.500000 
71.500000 16.500000 500.500000 
82.500000 16.500000 500.500000 
49.500000 27.500000 489.500000 
60.500000 27.500000 489.500000 
49.500000 38.500000 489.500000 
49.500000 27.500000 500.500000 
60.500000 38.500000 489.500000 
60.500000 27.500000 500.500000 
49.500000 38.500000 500.500000 
60.500000 38.500000 500.500000 
60.500000 16.500000 511.500000 
60.500000 16.500000 522.500000 
71.500000 27.500000 489.500000 
82.500000 27.500000 489.500000 
71.500000 38.500000 489.500000 
71.500000 27.500000 500.500000 
82.500000 27.500000 500.500000 
82.500000 38.500000 500.500000 
71.500000 5.500000 511.500000 
82.500000 5.500000 511.500000 
71.500000 16.500000 511.500000 
82.500000 16.500000 511.500000 
82.500000 5.500000 522.500000 
71.500000 16.500000 522.500000 
82.500000 16.500000 522.500000 
49.500000 27.500000 511.500000 
60.500000 27.500000 511.500000 
49.500000 38.500000 511.500000 
49.500000 27.500000 522.500000 
60.500000 38.500000 511.500000 
60.500000 27.500000 522.500000 
49.500000 38.500000 522.500000 
60.500000 38.500000 522.500000 
71.500000 27.500000 511.500000 
82.500000 27.500000 511.500000 
71.500000 27.500000 522.500000 
82.500000 27.500000 522.500000 
71.500000 38.500000 522.500000 
38.500000 49.500000 489.500000 
38.500000 49.500000 500.500000 
27.500000 60.500000 500.500000 
38.500000 49.500000 511.500000 
27.500000 60.500000 511.500000 
38.500000 49.500000 522.500000 
49.500000 49.500000 489.500000 
49.500000 49.500000 500.500000 
49.500000 60.500000 500.500000 
60.500000 60.500000 500.500000 
71.500000 49.500000 489.500000 
71.500000 49.500000 500.500000 
82.500000 49.500000 500.500000 
71.500000 60.500000 500.500000 
49.500000 49.500000 511.500000 
49.500000 49.500000 522.500000 
49.500000 60.500000 522.500000 
82.500000 49.500000 511.500000 
71.500000 60.500000 511.500000 
82.500000 60.500000 511.500000 
82.500000 71.500000 522.500000 
93.500000 5.500000 445.500000 
104.500000 5.500000 445.500000 
93.500000 16.500000 445.500000 
104.500000 16.500000 445.500000 
104.500000 5.500000 456.500000 
93.500000 16.500000 456.500000 
104.500000 16.500000 456.500000 
115.500000 5.500000 445.500000 
126.500000 5.500000 445.500000 
115.500000 16.500000 445.500000 
115.500000 5.500000 456.500000 
126.500000 16.500000 445.500000 
126.500000 5.500000 456.500000 
115.500000 16.500000 456.500000 
126.500000 16.500000 456.500000 
93.500000 27.500000 445.500000 
104.500000 27.500000 445.500000 
93.500000 38.500000 445.500000 
93.500000 27.500000 456.500000 
104.500000 38.500000 445.500000 
104.500000 27.500000 456.500000 
93.500000 38.500000 456.500000 
104.500000 38.500000 456.500000 
104.500000 16.500000 467.500000 
115.500000 27.500000 445.500000 
115.500000 27.500000 456.500000 
126.500000 27.500000 456.500000 
115.500000 38.500000 456.500000 
126.500000 38.500000 456.500000 
115.500000 5.500000 467.500000 
126.500000 5.500000 467.500000 
115.500000 16.500000 467.500000 
126.500000 16.500000 467.500000 
126.500000 5.500000 478.500000 
115.500000 16.500000 478.500000 
126.500000 16.500000 478.500000 
104.500000 27.500000 467.500000 
104.500000 38.500000 467.500000 
115.500000 27.500000 467.500000 
126.500000 27.500000 467.500000 
115.500000 38.500000 467.500000 
115.500000 27.500000 478.500000 
126.500000 38.500000 467.500000 
126.500000 27.500000 478.500000 
115.500000 38.500000 478.500000 
126.500000 38.500000 478.500000 
137.500000 5.500000 445.500000 
137.500000 5.500000 456.500000 
148.500000 5.500000 456.500000 
137.500000 16.500000 456.500000 
148.500000 16.500000 456.500000 
159.500000 5.500000 456.500000 
137.500000 27.500000 456.500000 
148.500000 27.500000 456.500000 
137.500000 38.500000 456.500000 
137.500000 5.500000 467.500000 
148.500000 5.500000 467.500000 
137.500000 16.500000 467.500000 
137.500000 5.500000 478.500000 
148.500000 16.500000 467.500000 
148.500000 5.500000 478.500000 
137.500000 16.500000 478.500000 
148.500000 16.500000 478.500000 
159.500000 5.500000 467.500000 
170.500000 5.500000 467.500000 
159.500000 16.500000 467.500000 
159.500000 5.500000 478.500000 
170.500000 5.500000 478.500000 
159.500000 16.500000 478.500000 
170.500000 16.500000 478.500000 
137.500000 27.500000 467.500000 
148.500000 27.500000 467.500000 
137.500000 38.500000 467.500000 
137.500000 27.500000 478.500000 
148.500000 38.500000 467.500000 
148.500000 27.500000 478.500000 
137.500000 38.500000 478.500000 
148.500000 38.500000 478.500000 
159.500000 27.500000 467.500000 
159.500000 27.500000 478.500000 
170.500000 27.500000 478.500000 
159.500000 38.500000 478.500000 
170.500000 38.500000 478.500000 
93.500000 49.500000 456.500000 
104.500000 49.500000 456.500000 
115.500000 49.500000 456.500000 
126.500000 49.500000 456.500000 
104.500000 49.500000 467.500000 
115.500000 49.500000 467.500000 
126.500000 49.500000 467.500000 
115.500000 49.500000 478.500000 
126.500000 49.500000 478.500000 
93.500000 5.500000 489.500000 
93.500000 16.500000 489.500000 
93.500000 5.500000 500.500000 
104.500000 5.500000 500.500000 
93.500000 16.500000 500.500000 
104.500000 16.500000 500.500000 
126.500000 16.500000 489.500000 
93.500000 5.500000 511.500000 
104.500000 5.500000 511.500000 
93.500000 16.500000 511.500000 
93.500000 5.500000 522.500000 
104.500000 16.500000 511.500000 
104.500000 5.500000 522.500000 
93.500000 16.500000 522.500000 
104.500000 16.500000 522.500000 
126.500000 27.500000 489.500000 
126.500000 38.500000 489.500000 
115.500000 5.500000 511.500000 
115.500000 5.500000 522.500000 
115.500000 16.500000 522.500000 
104.500000 27.500000 511.500000 
93.500000 38.500000 511.500000 
93.500000 27.500000 522.500000 
137.500000 49.500000 467.500000 
148.500000 49.500000 467.500000 
137.500000 49.500000 478.500000 
148.500000 49.500000 478.500000 
159.500000 49.500000 478.500000 
137.500000 5.500000 489.500000 
148.500000 5.500000 489.500000 
137.500000 16.500000 489.500000 
148.500000 16.500000 489.500000 
148.500000 5.500000 500.500000 
137.500000 16.500000 500.500000 
148.500000 16.500000 500.500000 
159.500000 5.500000 489.500000 
170.500000 5.500000 489.500000 
159.500000 16.500000 489.500000 
159.500000 5.500000 500.500000 
170.500000 16.500000 489.500000 
170.500000 5.500000 500.500000 
159.500000 16.500000 500.500000 
170.500000 16.500000 500.500000 
137.500000 27.500000 489.500000 
148.500000 27.500000 489.500000 
137.500000 38.500000 489.500000 
137.500000 27.500000 500.500000 
148.500000 38.500000 489.500000 
148.500000 27.500000 500.500000 
137.500000 38.500000 500.500000 
148.500000 38.500000 500.500000 
148.500000 16.500000 511.500000 
159.500000 27.500000 489.500000 
170.500000 27.500000 489.500000 
159.500000 38.500000 489.500000 
159.500000 27.500000 500.500000 
170.500000 38.500000 489.500000 
170.500000 27.500000 500.500000 
159.500000 38.500000 500.500000 
170.500000 38.500000 500.500000 
159.500000 5.500000 511.500000 
170.500000 5.500000 511.500000 
159.500000 16.500000 511.500000 
170.500000 16.500000 511.500000 
170.500000 5.500000 522.500000 
159.500000 16.500000 522.500000 
170.500000 16.500000 522.500000 
148.500000 27.500000 511.500000 
148.500000 38.500000 511.500000 
159.500000 27.500000 511.500000 
170.500000 27.500000 511.500000 
159.500000 38.500000 511.500000 
159.500000 27.500000 522.500000 
170.500000 38.500000 511.500000 
170.500000 27.500000 522.500000 
159.500000 38.500000 522.500000 
170.500000 38.500000 522.500000 
126.500000 49.500000 489.500000 
115.500000 60.500000 500.500000 
126.500000 60.500000 500.500000 
126.500000 60.500000 511.500000 
126.500000 71.500000 511.500000 
137.500000 49.500000 489.500000 
148.500000 49.500000 489.500000 
137.500000 49.500000 500.500000 
148.500000 49.500000 500.500000 
137.500000 60.500000 500.500000 
148.500000 60.500000 500.500000 
159.500000 49.500000 489.500000 
170.500000 49.500000 489.500000 
159.500000 60.500000 489.500000 
159.500000 49.500000 500.500000 
170.500000 49.500000 500.500000 
159.500000 60.500000 500.500000 
170.500000 60.500000 500.500000 
148.500000 49.500000 511.500000 
148.500000 60.500000 511.500000 
159.500000 49.500000 511.500000 
170.500000 49.500000 511.500000 
159.500000 60.500000 511.500000 
159.500000 49.500000 522.500000 
170.500000 60.500000 511.500000 
170.500000 49.500000 522.500000 
159.500000 60.500000 522.500000 
170.500000 60.500000 522.500000 
148.500000 71.500000 511.500000 
159.500000 71.500000 511.500000 
170.500000 71.500000 511.500000 
159.500000 71.500000 522.500000 
170.500000 71.500000 522.500000 
181.500000 5.500000 500.500000 
181.500000 16.500000 500.500000 
181.500000 27.500000 500.500000 
181.500000 38.500000 500.500000 
181.500000 5.500000 511.500000 
192.500000 5.500000 511.500000 
181.500000 16.500000 511.500000 
181.500000 5.500000 522.500000 
192.500000 16.500000 511.500000 
192.500000 5.500000 522.500000 
181.500000 16.500000 522.500000 
192.500000 16.500000 522.500000 
203.500000 5.500000 511.500000 
203.500000 16.500000 511.500000 
203.500000 5.500000 522.500000 
214.500000 5.500000 522.500000 
203.500000 16.500000 522.500000 
